# 3D point list with one line of data per point:
#   POINT3D_ID, X, Y, Z, R, G, B, ERROR, TRACK[] as (IMAGE_ID, POINT2D_IDX)
# Number of points: 256, mean track length: 15.39395861412828
12516 3.118349092041774 0.97078567121417858 6.0237190865047889 140 142 137 0.32498676994101039 114 595 112 558 115 619 116 595 111 569 110 564 109 654 108 524 107 605
12517 0.088662817874909983 1.3661922081159881 2.8705328350815988 102 106 107 0.41141123554472681 113 589 116 826 112 582 111 553
12518 -0.3609115163497425 0.92600788636725273 3.4979313378363179 109 127 131 1.2015718238746991 114 577 115 594 116 614 112 585 111 552 110 550 104 314
12521 0.44893730430747858 1.0853357521617484 3.4814478894997074 75 83 92 1.326738997082457 113 578 114 705 115 608 116 628 112 597 111 665 110 658 108 550 108 643 107 540 106 535 106 536 104 601 109 558 105 551 104 496 102 553 99 499 100 574 96 631 95 641 98 483
13181 0.13952842745453292 2.0744238083292026 5.5622000167901424 143 152 146 1.9003838027930755 102 571 103 591 100 516
12524 0.8044282062540743 0.92822939422590212 3.2280152297926001 0 0 0 1.464513962021355 118 960 128 786 116 983
15730 -0.26943397697025923 3.6753097327929725 4.5101930574920859 126 124 112 0.30593174579119797 44 640 45 635 43 707 39 765 24 950 23 1055 22 1074 16 1059 21 1051 20 1065 19 1067 18 997 17 1001 14 979 12 989 15 1012 10 1036 9 979
12525 -0.53222859166868486 2.7199251174360946 5.7913937526741561 0 0 0 3.4001073951128813 116 763 120 721
13692 -0.01927027012538696 2.5995623883591272 3.6356890737656755 150 151 137 1.770883979381386 93 13 94 15 95 31 92 11 90 23 89 13 86 158 85 306 87 309
12527 1.1858870888701389 3.5096873720205819 4.4641537404216525 126 129 118 0.17865493270864527 113 803 114 813 112 651
13121 0.066389683655778631 0.91078040200257659 3.6909787017726532 104 119 122 1.1952654159952454 105 473 98 667
12528 3.1852919744783788 2.7449003777860344 4.8892653073620505 148 155 148 0.43426300856761113 113 567 114 612 112 690 111 506 110 502 109 479 107 449
13638 0.41335201512658115 2.2802569780499349 3.5623778865323077 59 72 89 0.058194565715668056 98 362 93 273
12529 -0.43533388377793469 1.6301041802040064 2.9081103940737658 108 108 118 1.8720045344776881 113 817 115 764 112 696 111 788 110 688 108 761 107 757 104 497 104 588 105 565 103 458 102 423
13125 -0.30740092178949868 1.0136328090617146 3.0778213126903715 117 117 115 0.47191143549768183 102 422 103 358 101 410 100 422
12532 -0.15148566696849478 1.9924024375945766 5.3049857160115739 98 117 123 1.7031794395207924 114 798 115 686 112 712 111 864 110 840 109 891
13636 -0.35877197607464639 1.449830024264575 3.0489050890068516 181 185 185 1.697493739242907 94 248 93 255 92 251 87 94 85 82 82 85 80 87 76 97 75 89 74 99 71 97 68 90 65 98 67 91
12535 0.057122851454553383 1.6142332150484746 3.2871495596815881 106 107 109 1.9671947371026222 114 774 112 720 111 715 108 799
13129 0.35951008145310825 1.0378987499085695 3.6160859037387598 96 100 101 0.019080183774281549 102 501 101 442
12536 -1.8559362751746626 4.4372462295108237 6.5191928196383113 0 0 0 0.71358374610688535 116 744 120 883
12538 0.53533959345509674 1.9206567280518629 4.5856165763185341 77 93 99 1.8874582783606162 113 783 114 801 115 819 112 743 111 744 110 630 108 579
15688 -0.33842817629998928 2.4682718681609672 3.7724122078597064 104 105 100 0.45121281446418809 44 331 45 343 48 415 43 373 42 375 39 358 41 359 37 305 38 383 40 312 36 340 35 327 34 406 33 327 30 372 32 347 31 274 29 290 16 228 28 302 27 255 26 323 25 302 24 313 23 350 22 324 21 337 20 309 19 332 18 293 13 358 17 291 14 338 12 335 15 210 11 208 10 217 9 209 6 208 4 217 8 221 3 201 7 201 2 197 5 191
12539 3.1130944149552131 0.66656256036328487 6.2614688375699554 163 169 159 2.0339667720640273 114 930 112 787 112 511 109 333 111 566
12540 3.4382259221584643 1.2530390799880129 5.8096414175442765 180 182 177 0.25953417744713037 113 726 114 748 112 790 115 745 116 618 111 564 110 674
13644 0.4873946400493922 1.8537189883163299 4.7385626176885127 108 123 120 0.7062502863118485 94 264 95 289 96 394 93 313 92 352 91 411 92 430 90 382
12543 -0.042163960647862972 2.5733055318271938 5.6561019592439088 85 103 112 1.5885659834857746 113 915 120 732 106 790 114 927 104 753 105 685
12546 -0.27004705725753214 0.81778689134868898 3.1692642518356577 78 80 79 1.3313427688839576 112 887 111 708 108 541 106 609 116 913 102 532
14002 2.5153066233994124 3.6859158582525686 4.3470881068815714 130 130 122 0.28843131612239958 89 585 90 467 88 538 87 517 86 517 84 467 82 516 80 505 79 504 77 542 72 561 70 476 66 461 64 482 65 461 62 505 63 503 67 481 61 506 60 509 59 591 58 531 57 553 56 492 55 601 53 476 50 475 49 499
12547 -0.11819243765137057 1.0212540394794929 3.1102611167996597 184 187 196 0.56065334383139442 113 839 114 763 112 899 110 699 109 812
13495 3.3348667484279551 4.008451376507586 4.0465930633908895 138 139 123 0.38240944162642249 97 224 95 196 94 168 96 195
12980 -0.26127788534013274 1.2827843407932376 4.3036847851285209 170 177 170 0.72996387559002207 104 562 106 328 107 308 108 350 109 171 112 95 105 552
12549 -0.22248475795147191 0.95647436947907227 3.6895529273724974 102 118 124 0.86006456537584475 113 732 114 775 112 927 115 790
13489 0.25074236689809887 1.7815070014200538 5.1041268549765384 167 174 167 1.8219201208546982 97 146 98 119 95 135 94 213 93 167 92 269
12550 -1.1469819653604139 3.5487544252567762 4.6670297853386691 34 78 96 1.6469769716880949 121 533 111 918 112 933
12551 3.5028369707332492 2.0239672967926059 5.3388689437108567 163 168 164 0.3360781349096551 114 876 115 918 112 955
14010 0.71522485507989741 1.6297664039942685 4.0723834000919261 0 0 0 0.92532973743221492 89 316 93 27
12555 0.12305048572638774 1.2158159913320201 2.9711711187210819 91 94 103 0.59229167125052107 113 414 116 413 118 419 119 407 117 253 112 410 111 394 110 386 109 359 108 345 107 376 106 321 104 318 105 315 103 289 102 269 101 278
13503 0.87175993478048275 3.0385002063009963 4.8193054742847226 126 128 123 0.52999491359280371 97 311 99 367 95 306 94 285
12556 1.7016964748731718 0.58905417143768968 6.2659276351514386 177 182 178 1.8160863355693615 117 624 118 537 114 614 113 624 112 547 138 133 144 126 145 129 137 141 136 131 135 163 134 173 133 185 132 232 131 229 130 255 129 223 128 124 127 237 125 148 123 193 121 328 120 128 120 202 119 309 118 315 117 322 115 343 114 214 113 326 112 233 111 315 111 777 110 312 110 583 109 278 108 270 107 254 106 236 104 247 116 872
12557 2.7650438525066461 0.89164835432622824 6.0279170904242818 58 60 57 0.34594329298163051 117 866 112 971 135 1048 133 1002 111 667
12558 0.59166239449804037 2.0364696370489761 5.4333748303633538 161 168 161 1.6458845464085694 135 727 132 1052 129 891 124 808 119 834 117 1009 115 839 116 785 112 843 117 686 118 811 115 840 116 786 111 760 111 761 110 806
12928 0.53885535932976658 1.857709681159164 3.2728431501951434 65 91 108 1.4892350741770104 111 908 104 603 102 688
12561 -0.40068987382562282 1.3581540946906052 5.9456970990522189 112 114 104 0.61621753415015845 113 246 114 293 115 275 116 257 155 320 156 271 157 268 158 238 159 220 161 311 154 225 150 284 149 299 148 321 140 342 139 341 138 355 137 378 136 370 135 340 134 284 133 325 132 365 131 344 129 352 128 342 127 409 126 347 125 270 124 325 123 314 122 324 121 277 120 318 119 248 112 327 110 403 109 377 107 333 106 167 104 279 99 117
13954 0.59443522716255059 1.6574247828297366 2.8162700919239678 62 79 87 1.3466130969782319 89 154 91 160 90 169 56 327 54 304 53 341 52 422 50 357
12563 0.46997610307338988 1.3544654449004729 2.4074582590098488 175 181 169 2.4289930413445742 113 172 114 144 112 133 107 36
12932 1.533314296177271 0.93749862404795514 6.0767813181545804 176 179 172 0.45180572652957718 106 665 107 635 108 707 109 627 110 590 104 642 105 638
12565 2.6866781647088605 0.95951455146717035 6.0647842072119298 152 155 148 1.6503884963168616 118 878 119 796 112 969 110 815 117 720 108 750 107 643 106 677 104 566 105 644 103 532 102 452 102 592 101 557 101 609
12567 -0.14120528539756347 1.0845758612297547 3.2849601409594484 193 203 216 1.2645229163968899 112 5 111 5 110 5 109 6 108 6 107 7 106 7 104 5 105 7 103 8 102 6
12936 0.60844946875361816 2.7676504305151775 4.643749571862311 82 94 109 0.24055829166228127 109 767 110 828 104 685 105 675 103 642 102 624 100 679 99 509 98 501 97 494 96 587 95 590 94 605 93 621 90 456 80 568 79 576
12569 -0.60900700364145721 3.9356072487092275 3.9486895031409781 163 169 153 0.70774839632133879 114 17 111 9 109 7 113 18
12572 -1.8375573802297962 2.4764944905514286 4.8992295862200343 163 172 183 1.4086551279848178 111 104 110 167 120 682
12574 -2.124638114292186 3.8093416733253354 4.3901793017672608 77 77 79 1.8648485219802007 120 830 111 244 110 261
12575 1.5807007243943181 1.0230201820550782 6.0215800379127398 174 181 173 0.29964262853249735 116 357 118 367 111 335 109 412
12576 -0.56100803792911291 1.041073257292837 3.7195129422024511 159 166 158 1.3824780475443217 112 412 118 83 111 395 110 869 109 537 108 543 103 287
16332 -0.42829060706973388 2.3571780192226517 3.6709958812872014 52 53 68 0.93295643763017644 36 867 45 686 35 799 31 728 29 695
15453 -0.20479999741160898 4.0447588734331497 4.2548719068295613 132 133 119 0.19774088515425503 50 466 48 650 45 715 43 673 41 775
12578 0.27797960683424017 0.99404356858625786 3.6368429498188224 92 96 99 0.55083959582381614 112 441 113 471 116 476 111 444 110 442 107 543 106 533 104 600 105 553 103 673
15309 0.036990834011152371 4.5272009791373531 3.9399740887930221 164 164 152 0.91984043934320081 49 555 50 457 47 557 46 591 48 664 44 606 45 637 43 698 42 633 39 736 41 529 39 738 37 704 35 837
13906 0.25449729008668859 1.3244864541768595 2.9032435956860465 116 124 132 0.49841865172227823 90 319 89 366 88 430 87 442 88 431 86 476 85 461 84 523 83 451 82 423 81 483 80 420 79 424 76 420 78 404 77 388 75 418 74 424 72 418 73 404 71 527 70 402 68 382 69 409 66 481 64 452 65 448 63 483 67 398 61 484 60 598 59 502 57 512 53 570 50 503
12579 0.5160197841655656 1.0886263883396274 3.5054817514206058 0 0 0 0.076322459862674913 114 491 118 489
15302 -0.42082212510572892 1.1562866460686678 3.1661194231400578 235 238 245 0.1831010341241939 51 422 52 432 47 510
13399 0.071213680709650479 1.3337314017310753 2.9790421753827721 124 133 145 1.2787541249343193 98 599 101 616 102 672 103 686 111 946 106 743 97 550 100 622 96 590 95 516 95 659 94 627 91 525 90 514 89 486
12580 0.30507352432594681 2.4220837943708338 3.7003449804736013 77 85 95 1.3010025448479277 112 609 113 482 111 458 110 453 109 369 108 307 107 198 105 156 103 511 102 510 103 698 101 456 101 513 100 449 99 378 98 257 97 281 96 286 95 283 94 260 93 157 92 166 91 168 90 176 89 118 86 103 85 96 84 95 83 104 82 95 81 106 80 103 79 105 76 116 78 122 75 104 74 115 72 102 73 106 71 90 70 106 68 104 69 104 66 105 64 114 65 110 67 104
12581 2.7444844869548417 3.2761383538985611 4.741523755815126 134 135 127 0.92238653419025562 116 333 111 513 110 340
15958 -0.17664679279573414 5.3039165381524676 3.4877540483583078 149 150 134 0.37799703452136263 39 187 42 183 43 172 41 180 37 182 38 196 40 186 36 174 35 194 34 208 33 202 30 217 32 212 31 226 29 223 28 235 27 226 26 233 25 245 24 249 23 249 22 251 16 250 21 235 20 248 19 246 18 258 13 267 17 256 14 244 12 250 15 247 11 243 10 256 9 243 6 250 4 239 8 276 3 242 7 238 1 230 2 227 5 222
15297 0.99882499621616538 5.5475795101369618 3.278068561772074 163 164 150 0.34962879278137821 49 559 50 402 47 466 46 575 48 475 44 499 42 694 39 599 41 551 37 592 38 620 40 647 24 917 25 828
12583 -0.20567020575562919 1.1195099675498477 3.0596529268806485 161 161 163 0.61662795961586558 112 577 113 605 118 582 111 556 102 683
15451 0.30721008426362811 3.0538716815267435 4.5265486738616367 36 41 51 1.7597250276911172 49 428 48 644 45 621 38 802 40 836
15306 0.47859957234506123 1.2594593329835941 4.3246003352154991 0 0 0 2.3143215243282196 49 558 54 509
12584 -0.078625950800666131 1.3307310230429297 2.863404315409118 253 251 253 0.92278587040145266 114 472 118 584 111 557 108 424 107 468 106 484 104 479 105 397 103 359 102 426 101 273 100 335 99 256 98 199 97 207 96 130 95 123 94 159 93 93 92 87 91 98 90 95 89 84 88 83 87 62 86 79 85 76 84 75 83 59 82 73 81 61 80 56 79 58 76 61 78 73 77 85 75 58 74 88 72 80 73 80 71 98 70 94 68 84 69 86 66 90 64 99 65 97 62 109 63 107 67 92 61 106 60 117 59 112 58 121 57 129 56 127 55 126 54 115 53 152 52 129 50 121 49 108 47 118 46 120 48 128 44 112 45 124 43 117 42 122 39 129 41 117 37 121 40 132 36 110
14287 -0.096231457267752812 4.8390232664360529 3.7340643499819497 153 154 140 0.32238574353474514 84 429 85 506 83 417 82 502 81 399 80 392 79 494
12589 0.23651553432613406 2.5615236984132399 3.805298183448786 0 0 0 1.095430183865219 112 797 117 578
12591 -0.35437407548672478 2.1313367599998294 5.2991763863702257 97 104 107 1.2574409829506448 112 734 119 900 120 717 111 734
12960 0.11711637250793382 1.1741445659497194 3.9579787591294711 102 106 107 1.5041802115131553 104 56 107 63 105 54 102 59 108 84 106 60 101 57
12593 -0.33170058006299258 1.3177665533871934 2.8172844846938507 67 69 74 1.2014245804248522 115 760 116 704 111 783 106 719 95 494 94 455 93 385 92 388 91 370
13479 0.43576447703852755 0.812866282702989 2.9016711981513033 60 56 63 1.3395365668651069 102 667 95 660 94 680
12596 0.52326119833505147 1.3394508873518094 3.8723706432927192 88 92 95 2.0635775001305356 115 978 111 875 104 699 102 635 105 698 101 656
13473 -0.10256762636511946 1.5284596855096655 2.7711725895939301 139 143 151 0.31545219975752514 99 658 96 673 100 605 95 509
12598 3.0598378176621184 0.64387386077516706 6.1356404159722882 129 132 123 0.41670466439059356 114 734 115 1042 111 900 116 596 110 784 109 883
16038 1.2942626628075582 2.9155866763799367 4.9664978302462908 145 157 153 0.81516734797884149 39 409 42 390 37 456 41 382 38 426 40 444 36 544 35 603 34 600
12599 0.30400292089465886 1.9248952183184143 2.918221282289343 164 172 165 1.3217155830427603 116 930 107 479 105 475 103 294 102 654 100 572 111 926 99 456 99 495 98 481 97 475 96 524 95 526 94 488 93 482 92 369 91 437 90 414 89 412 88 365
15322 0.2526730713711236 2.5196564153148517 4.1705918611911237 42 70 45 1.8378740154349855 68 400 70 428 62 385 59 404 57 371 56 590 47 594 49 612 51 486 42 736 36 825 38 823 35 877 34 874 31 903 35 876
12600 3.9168384923646049 2.3637409358609367 5.0576730624583623 144 145 139 0.12356625374460024 116 1009 111 930
16347 1.1160838546524348 1.4993251918265038 5.5979136614464995 170 175 169 0.4005128653247218 36 238 37 236 40 255 35 253 34 320
12601 0.29053586956263494 1.5769839471713287 2.8094169857164926 85 85 86 0.69918842679639182 112 915 116 1020 111 936
13994 -0.58729820181530001 4.4354187074779965 3.9769268448791624 177 179 166 0.38054349781570829 89 558 88 501 90 579 87 405 86 502 85 518 84 482 83 554 82 413 81 386 80 511 79 520 76 507 78 486 77 368 75 385 74 384 72 381 73 372
12603 0.39239054832702663 1.0311852836465973 3.5337007960828482 87 92 95 0.07596989590481458 117 762 111 970
13487 0.091737357019804233 1.6963937106629894 3.3775148416362093 162 145 92 1.6081564834549436 96 110 97 130 98 127 95 113 84 79 83 60 82 75 81 84 80 37 79 40 78 472 79 484
12605 -0.62949483239390658 1.3858115851149462 3.048884266281688 76 80 82 1.518153091900367 119 854 120 702 118 824 115 856 116 881 113 813 111 427 116 460 113 573 110 424
14296 0.3585945738762486 1.5532632101001544 3.3732953371607244 106 99 70 0.32752448564018688 84 418 85 477 83 497 79 571 76 466 74 485
13481 0.16983294268601704 2.2522140266966724 3.6853950912826798 43 51 87 1.1413273821795056 96 6 97 6 98 6 95 5 94 2 93 0 92 0
12606 0.19527822337024245 1.1641371847009967 3.8994807780934955 72 76 75 1.7854450196311713 119 946 115 998 120 888 111 808 118 962 119 949 117 961 110 872
12609 0.30176283049438046 1.0910486857804933 3.8113194462808502 78 82 83 0.16436958764407916 112 981 113 957 118 959 111 892 110 867
12610 0.6031282834239946 1.9075598329100234 3.164355234197882 132 142 125 0.72086414237202501 112 702 111 909 109 687
14066 0.43089161813615134 1.0619501771795152 3.6059299995828571 176 181 178 2.3111952370625861 87 48 93 602 86 141 80 474
12611 0.21690368806179322 1.3711299866614033 2.5135088293022445 88 96 99 2.2322214133265565 115 868 116 895 111 957
13559 -0.24452610724557935 4.2335819322524024 4.1565902132722332 165 166 154 0.6489357251184561 97 148 94 100 92 143 90 71 88 63 87 80 86 78 85 101 84 72 83 82 82 57 81 67 80 76 79 66 76 80 78 57 77 65 75 65 74 72 72 64 73 60 71 83 70 63 68 67 69 72 66 73 64 69 65 66 62 66 63 69 67 72 61 77 60 79 59 77 58 85 57 89 56 96 55 93 54 101 53 117 52 97 50 105 49 89 51 122 47 96 46 95 48 102 44 93 45 103 43 98 42 97 39 103 41 87 37 148 38 109 40 105 36 133 35 105 34 117 33 125 30 170 32 127 31 133 29 130 28 128 26 130 25 130 24 127 23 140 22 147 16 139 21 159 20 133 19 146 18 133 13 149 17 141 14 131 12 136 15 130 11 131 10 137 6 141 4 125 8 153 3 122 7 123 2 121 5 118
12612 3.3781701026013566 1.1417381286813244 5.7727632498531403 166 171 167 0.56594406281357668 111 45 112 49 113 46 110 46 109 53 108 59 107 46 106 47 104 54 105 48 103 63 102 74 101 75
12613 -0.11578212783968327 1.1858959373453153 2.9301065557322108 33 32 32 0.33847806001396075 111 51 112 53 113 48 110 50 109 42 108 47 107 35 106 52 104 51 105 51
12614 -1.1680941908607749 4.8069671151213651 4.2860249343683217 171 173 160 0.80694637753538401 113 53 114 58 110 52 112 54
16118 -0.88099147181168214 4.4543297940813638 4.0486039574646293 140 140 128 0.27072302161514628 37 417 39 414 41 389 38 434 40 451 36 438 35 463 29 470 26 486 25 519 24 503 23 547 16 622 22 554 21 550 20 550 19 565 18 540 13 545 17 553 14 535 12 595 15 597 11 589 10 602 9 594 6 559 4 546 8 597 3 533 7 525 1 511 2 480 5 447
12615 -3.4812677013892066 3.1791914644492687 4.6389369538005596 179 181 170 1.2069408411742426 111 64 112 50 113 47 110 69 109 74 108 77 107 78 106 84 104 74 105 82 102 38 103 49
15611 -0.41021764321952148 4.6360034228772484 3.9287024025930397 167 167 155 0.44612997891341977 48 662 45 489 43 538 42 730 39 577 41 526 37 719 38 780 40 807
12616 -3.4243897821881633 2.1026720772630152 5.6635781467768025 180 183 176 0.38831747254155802 111 91 112 91 113 84 114 87 115 103 110 81 116 90 109 90 108 91 107 81 106 81 104 70 105 79
13048 0.6224377683556841 1.4714160575420663 3.7031611744647321 81 90 96 1.4565418060696858 111 646 118 679 110 641 109 580 107 563 108 566 106 556 104 544 105 537 103 509 112 621 107 525 106 554 104 548 105 539 102 487 101 457 100 448 99 507 98 425 97 482 96 530 95 537 94 498 93 433 92 422 86 558 88 552
12617 2.958648505115943 2.1208388514093977 5.3062787093157882 135 138 131 0.87999345502794712 111 72 113 71 114 102 110 88 109 70 108 64 107 68 106 91 104 101 105 89 103 65 102 77 101 78 100 70 98 88 97 122 96 59 95 146
12618 3.2780597730042862 2.978294878167882 4.7732435208925015 133 136 129 0.63956540813619944 111 116 112 114 113 146 110 99 109 107 108 115 107 115 106 115 104 109 105 115 102 124 101 100 100 120 98 113 97 116 96 95 95 102 94 119 93 84 91 91
14074 3.6315565072280278 3.3172540632644405 4.5266689595558232 151 152 145 0.22786256997512541 88 297 86 244 87 307 85 260 84 257 83 316 82 242 81 301 80 297 79 296 76 294 78 286 77 279 75 287 74 289 72 289 73 282 71 305 68 265 69 277 66 286 64 305 65 281 67 275
12619 -3.5873168219171765 2.0875049590993782 5.5591838381403145 155 157 144 0.57932211344887874 111 135 113 131 114 142 115 148 110 124 112 103 109 126 108 94 107 152 106 83 104 165 105 142
12620 -0.1635955428777052 1.4283194645801622 2.8593799324779257 90 85 82 0.47527979519560482 110 126 108 131 107 132 106 129 104 121 105 127 103 109 102 96 101 112 100 80
13052 1.7714329841255765 3.0093738604281617 4.836666086507563 88 92 88 1.8550532267854525 121 215 124 237 120 137 119 234 118 218 115 198 114 234 113 199 112 219 111 181 108 182 103 166 106 200 135 40 136 33 134 40 137 216 135 330 133 47 132 40 132 360 131 45 131 346 130 42 129 62 128 49 127 57 126 60 125 37 124 35 123 35 122 36 121 39 120 39 119 68 118 56 117 62 115 33 116 52 114 31 113 49 112 63 111 57 110 57 109 51 108 55 107 50 104 40 105 42 103 40 102 28 102 160 101 34 99 52 98 38 97 57 96 52 95 28 94 47 93 37 92 23 91 25 90 27 88 23 87 20 86 27 85 28 89 22 84 17 83 30 82 30 81 32 80 33 79 38 76 33 77 34 75 34 74 39 72 39 73 24 71 32 70 37 68 37 69 40 66 36 64 36 65 37 62 41 63 40 61 40 60 47 59 44 58 50 58 209 57 52 56 51 55 47 54 58 53 55 50 51 49 44 51 44
12621 -0.32436626441442529 0.93371086046708562 3.7058179765908643 158 163 155 1.410744177759033 111 142 126 39 110 130 112 88 124 51 125 62 108 155 107 155 106 153 103 139
13561 0.63752880725352679 2.8326517854737858 4.9735278799950331 111 114 101 0.80220150468834583 95 231 100 285 101 378 94 218 92 206 91 203 87 157 83 126 71 166 68 149
12622 -0.26373683354715433 1.3801713666509361 4.3007311649871234 0 0 0 1.1645026952995912 112 251 114 283 115 445 119 418
13350 -0.14658553601199306 1.8070096718154611 2.7641693305850001 122 112 85 2.039956573297669 98 84 99 65 97 59
12992 -0.10246935667229112 2.4251465975654618 3.3578503997822047 95 107 95 2.277254220074489 106 753 107 723 109 362 105 723
12625 2.747976451635076 2.8735317595026126 4.9327683034097021 137 139 134 0.8587259138305211 115 347 110 306 102 229 97 215 96 251 95 148 93 189 92 129 91 138 90 135 89 124 88 116 85 109 72 128 69 178 66 137 65 179 62 188 63 150 67 175 61 200 60 204 59 207 58 204
15565 0.43605944293938032 1.7043417002371806 3.2211484387516016 43 66 77 2.0594241000587292 47 488 48 501 46 318 48 357 44 327 44 593 45 337 45 513 43 361 43 581 42 588 39 685 41 656 37 693 38 746 38 747 40 761 40 762 36 880 36 881 35 780 35 915 34 767 33 748 33 749 30 803 32 786 31 784 31 785 29 719 29 817 25 1002 24 1037 22 961 21 956 17 918
13859 -0.26535339971102745 1.4951459042050248 2.8145686857443453 206 206 206 1.0133379136105207 93 503 90 488 92 504 89 467
12626 3.4416358170719632 1.1880886310627605 5.8891486013334609 169 172 165 0.23485004992938829 111 371 112 509 113 393 110 364
12628 4.0191974154533723 2.4341434303862273 5.0052291989103921 154 156 145 0.42886886659490209 111 374 112 390 113 392 110 374 114 398 109 340 108 322 107 407 106 405 105 296
12996 0.98120167474515563 0.64211591038917093 6.2761927116487941 91 93 88 1.7650785255471213 112 490 115 566 111 530 110 528 108 387 107 463 106 363 104 354 105 355 145 310 147 198 148 159 151 330 144 213 156 202 143 226 142 226 141 208 140 311 139 306 138 317 137 341 136 335 135 379 134 251 133 361 132 286 131 410 129 369 128 304 127 302 126 279 125 298 124 450 123 428 122 342 121 424 120 438 119 347 149 444 118 357 117 346 116 348 114 352 152 395 147 394 103 398 102 415
12629 -0.069378455516947962 1.2923603306628118 3.3459224113384649 87 93 104 1.4776624543299945 111 396 112 413 113 399 110 388 109 343 108 228 108 546 107 301 106 293 104 321 107 548 105 290
15911 -0.6918491535600958 1.5854521291094976 3.0767640511677867 190 196 196 2.221628517512813 45 592 39 615 41 571 36 899 35 770 30 488 32 340 29 420 28 680
13505 2.6023027343351961 3.7602091341067925 4.3072494603898486 137 140 133 0.59396408999175987 96 352 97 326 95 349 94 370 93 324 92 236 84 291 60 247 61 238 63 307 59 244 58 234 57 273 73 274 72 291 56 273 55 257 54 310 53 285 52 288 50 287 49 310 51 241 47 330
12630 0.46337450298905986 1.0858073982677683 3.5985765742080087 87 91 92 1.0676488268383328 115 495 117 491 110 449 109 444 108 555 107 788 106 767
15563 0.27250700834745839 1.7822908313576182 3.196161127907553 28 38 44 1.8543645650299014 46 126 47 122 48 133 53 40 56 44 52 43 49 37 44 116
12841 3.790121756740227 1.4001457110291722 5.647643362672933 169 171 166 0.59510894544556792 107 73 108 62 109 67 106 87 104 72 105 86 103 61 102 73 101 73 100 67 99 79 98 86
12632 3.1685821597511343 0.72198511674672983 6.1211503524102344 166 169 162 0.31187091806267186 111 488 112 510 113 514 110 478 114 519 115 607 108 525 107 606 106 506 104 406 105 536 103 420 102 405
13358 0.50717228972952333 2.2782568238618142 3.6948385354890658 114 120 118 1.173401595791296 98 259 99 274 100 272 97 214 96 190 95 182 94 210 93 164 92 172 91 155 90 183 89 170 88 164 87 146 86 163 85 156 84 147 83 133 82 131 81 153 80 176 79 159 76 174 78 147 77 150 75 132 74 164 72 158 73 142 71 158 70 135 68 151 69 145 66 141 64 199 65 154 101 295 62 166 63 154 67 149 61 177 60 223 59 188 58 225 57 232 56 240 55 184 54 187 53 237 52 226 50 225 49 211 51 226 47 245 46 228 48 258 44 224 45 229 43 244 42 246 39 244 41 242 37 244 38 274 40 267 36 246 35 261 34 303 33 296 30 317 31 275 26 355 25 391 24 426 23 429 22 414 21 419 20 397 19 407 18 496 17 512 12 519 10 624 9 731 6 678 4 580 8 617 3 679 7 670 1 530 2 540 5 573
13000 0.41394135107008562 1.0501930450888128 3.5778771951952901 88 89 93 1.7616737289633448 108 553 109 677 110 652 111 661 105 597 113 630 116 634 112 602 120 602 111 452 110 549 114 702 109 561 108 551 107 539 106 538 104 559 105 550 103 450 102 554 101 443
12633 3.7392608228405875 2.319429435145409 5.1030759288988126 144 149 143 0.509571013476532 111 490 112 514 113 519 110 479 109 466 108 437 107 459 106 494 104 402 105 401 103 424 102 419 101 417 100 291 99 331 98 288 97 253 96 259 95 254 94 256
15400 3.1712206134842549 3.0816538627740546 10.193003989521923 141 147 143 1.7217265511249806 49 81 48 131 39 740 41 224 42 44
12635 3.4994527632606021 1.3111780748482607 5.7430099359668265 169 172 163 1.2224525803496618 111 677 113 727 110 561 114 735 109 748 112 508 111 487 110 476 108 527 107 607
13519 0.22712470631830248 1.1858479090556733 3.2561580580232161 186 195 202 1.5298396061966331 95 525 94 532 91 220
12636 3.7267719340879979 2.2546887147962513 5.150261224719813 147 152 145 0.34913038457497952 111 675 112 786 113 720 110 563 108 838 107 770 106 711
15394 0.34778262879655936 5.0304711114146343 3.7021049718155834 169 170 154 0.36156770215295059 46 91 47 59 48 62 44 56 45 77 43 85
13004 -2.8807524699488525 4.2243504296211229 4.2484887824762891 168 169 153 0.50987431842890485 105 143 106 149 103 136 108 150 102 137 101 143 100 141 99 128 95 88
12637 0.58329192442222821 2.1935716306754101 3.8146275518566704 102 114 112 0.69981977922818472 115 979 110 638 116 993 107 518 106 562 104 451 105 485 103 384 102 372 101 388 100 293 99 278 98 260 97 277 96 287 95 286 94 262 93 166 92 216 91 154 90 184 89 171 88 166 87 148 86 165 85 157 84 148 83 134 82 136 81 154 80 177 79 161 76 145 78 149 77 142 75 133 74 165 72 149 73 144 71 159 70 136 68 152 69 147 66 144 64 201 65 156 62 167 63 153 67 150 61 178 60 220 59 189 58 224 57 187 56 239 55 182 54 186 53 236 52 213 50 223 49 193 51 219 47 243 46 256 48 257 44 223 45 227 43 243 42 245 39 243 41 241 37 242 38 271 40 264 36 242 35 258 34 248 33 294 30 314 32 322 31 261 29 286 28 298 27 376 26 353 25 388 24 492 23 408 22 411 16 641 21 416 20 516 19 404 18 494 13 507 17 510 14 730 15 748
12640 3.8539002494827495 2.3029463901841778 5.1345943569396963 144 144 142 0.77268125259641551 111 683 112 559 113 723 110 663 109 749 108 725 107 656 106 508 104 499 105 567 103 448 102 433 101 511 100 473 99 405
12641 -0.27405634238100229 1.0222749488648166 3.2056222890138297 174 172 175 0.47351619695900399 116 918 110 696 117 854
12642 -0.18503275025631785 2.0397494861300407 2.8700162594609484 176 175 160 2.0460385238679546 110 697 108 746 105 312 103 453 113 592 90 111 84 444 89 56 77 403 82 398 84 408
12643 1.0228147513119461 0.79693504743556054 2.3247180957168716 86 79 51 0.61004183126145217 113 755 105 726
13463 0.24578708571927332 1.8773907428385657 3.0967489508828221 59 86 103 1.5266968581321201 89 515 90 596 88 575 87 609 85 459 84 551 78 547 72 548 91 574 90 538 73 513 92 476 71 518 70 448 92 592
12644 -0.1978174947544698 0.95256742152583962 3.6953809237549575 0 0 0 2.2046909180781444 112 928 113 992 116 736
12645 0.33848244040490838 1.1738081199176167 3.8153874135675911 89 93 96 0.35025311822547206 114 787 110 714 115 990
12647 0.29149410191129371 1.5396759239920219 4.565566608399755 0 0 0 0.097550385287675789 114 942 118 934 119 975
15515 2.2287973682002016 1.6856884930468758 5.5442449061151846 152 154 149 1.1303924216075134 46 375 47 425 44 387 38 681 40 706 36 669 35 717 34 714 33 698 30 747 32 517 31 739 28 767 27 798 26 628 25 587 24 780 23 629 22 854 21 843 20 626 19 651 14 590 12 620 11 607 10 847 9 810
12648 -0.30801140011612099 1.4328097435089442 2.7815005275127258 83 92 99 1.8168639797334216 115 858 110 773 107 765 98 566 123 758
12952 0.035959253515056321 1.1346586951410009 2.9863615913326473 16 17 19 0.73237936095179068 114 764 113 748 112 713 115 780 130 790 118 760 103 691 104 594 99 546 96 541 95 553
12649 -0.19729239987752031 1.201919549459961 3.0180875544396559 107 103 100 1.2584516645248489 112 883 116 609 110 779 109 758 108 773 107 669 106 615 104 690 105 587 103 617
12650 3.730579862118907 2.404201447851944 5.0368149465319974 181 184 177 0.54085940523404408 116 924 110 785 109 792 100 627 99 633 98 633 97 610 96 573 95 602 94 677 93 524 91 538 90 156
12651 0.68862585450442171 2.0731667615517559 4.6159570652446487 76 93 103 0.1902139877527009 111 855 112 830 113 910 110 826 109 770
13471 0.094876913190591022 1.360985889071644 2.8635846662316786 73 78 84 0.9057348412134878 96 656 92 498 91 506 90 510 87 476
12652 0.60540653966226798 2.7006621546952161 4.5674077429693494 46 58 72 1.6038606964244313 115 911 110 829 108 583 108 842 106 792 105 526 105 670 103 467 100 520
12956 0.25750588126890578 1.8905022657370942 2.9591171876684039 60 76 73 1.3341594511865558 106 751 104 598 105 724 103 564 102 547 101 439 94 254
12653 0.68778833870264222 1.6911682312106033 4.220429466771404 95 101 101 1.7567724600858976 116 1001 110 835 109 762 100 698
13024 0.038108519002685193 0.82192013506767858 3.2843938411435887 96 114 126 1.8010269852936354 105 592 106 619 103 559 102 689
12657 0.5408661712313062 1.3290656412736246 3.8083093234595711 88 92 95 0.22557569790208451 116 992 110 852 109 871 108 827 107 791 104 700 103 658 101 655
12658 0.50486868039516097 1.4827832153991833 3.825045522421338 0 0 0 1.3077377584353937 113 941 126 892 107 787
13543 0.11701619290314148 2.1454395423913448 3.1362807431078288 63 73 60 1.2591614586846467 99 383 98 312 100 364 102 548 96 171 93 99 92 94 91 58 87 68 86 87 85 54 97 136 98 193 84 50 83 61 82 77 81 87 80 82 79 59 76 73 78 77 77 58 75 87 74 92 72 87 73 85 71 62 70 86 68 59 69 62 66 63 64 92 65 89 62 93 63 96 67 88 61 99 60 104 59 107 58 111 57 122 56 122 55 107 54 125 53 99 50 90 49 122 51 104 47 124
12660 -0.0023834098817651708 1.604931272158248 4.2050628764770126 87 91 94 1.7246651266110351 111 886 112 799 113 952 110 863 108 558 107 534 106 547 105 544 104 550 106 546
15595 1.5587949067905018 4.9472658109910821 3.8124198969300425 148 148 138 0.67796151485393696 44 288 48 284 45 302 43 319 42 317 39 428 41 396
12664 0.16328597395112454 1.3471525557923278 2.7532080724042665 121 120 121 0.95775255378346058 111 796 116 1011 108 780 107 745 106 738 105 742
13032 -0.37390523786408852 1.0799662476381997 2.9309652999695603 0 0 0 3.4798938357371201 108 753 119 868
12665 -0.044868483848335881 1.0108729665376819 3.039865193644391 179 180 182 0.61895017514240414 111 955 112 898 113 838 110 920 109 813
12667 0.35145327348772087 1.3237613311807237 4.1389418701769038 82 87 90 0.34041288739235459 117 945 110 935 109 882
12668 0.58247676433932916 1.2160991746464724 3.3509700673731251 81 90 92 1.5877543484017265 119 620 120 595 118 699 121 616 117 576 115 714 116 630 114 704 113 633 110 712 127 919 129 958 126 875 120 874 121 761 122 867 123 868 119 926 111 722 112 728 109 666 107 537 107 792 108 554 106 541 106 626 104 556 105 548 103 520 102 496 101 448 99 464 99 589 98 427 98 654 97 558 96 395 96 619 95 390 95 529 94 436 93 369 86 579 94 548
13036 -0.096271507409798784 1.5247411745775854 2.6854065131515377 168 168 170 2.345890651814313 104 655 103 613 102 425 101 569 100 597
12669 0.67473986975261191 1.876063343693158 4.2329528289022509 66 91 101 1.8720472191563162 116 660 112 740 110 632 132 1008 130 835 133 980 129 1008 128 812 127 801 126 755 126 929 129 1006 130 943 127 802 114 672 115 614 116 601 117 788 113 671 112 632 111 632 110 633 108 577 108 674 106 643 106 644 122 735 122 733 121 711 123 730 124 404 123 391 104 623 100 513 99 439 98 497 97 489
13545 0.62978758752588526 1.7164457891138793 4.1112506214687841 70 76 76 1.8772522461471022 96 582 97 487 98 494 110 842 111 739 112 737 113 780 107 611 104 618 115 687 118 623 117 676 121 708 116 658 114 674 113 673 112 630 111 634 108 673 107 612 106 640 119 747 104 619 105 521 105 613 100 648 93 563 95 462 92 581 89 593
12670 0.36736890957947765 0.96555002053836458 3.5168671479416931 80 90 98 1.1679243881831047 114 707 111 656 110 441 115 439 118 430 120 348 116 423 114 431 112 503 106 467 104 487 105 467 102 651
12817 0.18952226526518445 1.4973080326674562 2.8596181826347653 64 64 67 1.283923922006218 107 736 104 735 101 623
12672 0.72656032564566353 2.1486037655222194 4.7079554023055064 53 69 84 2.2039818356213914 119 756 120 734 118 803 117 806 115 828 116 775 114 810 113 793 112 751 110 820 113 905 116 830 115 957 111 850 110 823
12673 0.057651684357384138 1.5764870382721237 2.9124105821594219 82 85 92 2.5923784882863234 114 1026 110 910 119 839 117 858 115 890 116 863
12674 0.43734216268080989 2.0422455967033288 3.2669786403057044 71 75 76 1.55458011352797 111 441 112 727 113 581 115 629 116 619 110 393 111 913 112 595 108 352 108 808 107 217 107 659 108 311 106 624 104 554 105 205 105 711 103 516 102 431 101 392 100 368 97 362 98 361 96 390
12677 3.213543435184703 3.1063286854376009 4.6854204481948161 137 140 133 0.8905092231353201 110 198 111 197 112 112 109 105 108 113 107 113 104 107 103 133 100 119 99 94 98 112 97 167 96 94 95 100 94 118 93 83 92 80 91 187 90 132 89 77 87 60 85 106 84 104 82 71 80 78 79 116 76 90 78 115 77 79 75 111 74 134 72 108 73 109 71 92 70 114 68 111 69 85 66 114 64 118 65 116 62 76 63 128 67 84 61 49 60 72 59 88 58 94 57 96
15895 0.46642713895589333 5.5970221666398761 3.2685894990676263 143 144 130 1.2677669150649968 42 322 43 323 39 325 41 311 37 287 38 347 36 361 35 306 34 294 33 234 30 335 31 217 29 214 28 224 27 245 26 224 25 233 24 240 23 237 21 244 20 235 19 233 18 245 13 256
12678 3.1258681282172063 0.69146565700331297 6.1672515613047647 163 166 159 0.32572635817932749 110 109 112 124 109 114 108 120
12679 3.5024714703200135 1.1347377223144852 5.8390381835866574 136 137 129 0.34015909782391529 110 114 111 125 112 125 109 118 108 128 107 125 106 123 105 121 103 98 102 127 101 102 100 122 99 96
12682 -0.12323840380865782 1.2630682559486326 4.3003459512692324 160 166 160 1.4221165032390573 114 74 109 139 107 160 104 291 105 282
15384 4.695206237561445 5.654314011808772 15.738368476734104 146 151 145 2.0070040928643222 54 12 48 13 46 13 55 9 56 11 57 12 58 13
12683 0.024318754181605121 1.2943433022121231 4.3641454679916158 161 165 159 1.484273071472872 110 173 113 944 109 174 108 163 106 208
12684 3.091481646223103 0.56333150684293953 6.2307267783093838 160 164 158 0.37738613923469694 113 167 109 216 105 219
12686 3.4470540781369921 1.2048364847260733 5.7629089897375536 171 174 167 0.57248622303803032 110 280 111 281 112 298 109 248 113 293 108 236 107 288 106 309 104 211 105 387 103 281 102 217 101 213 99 189
13340 0.20744048920035429 1.1805829132807262 4.0259527104919783 177 181 180 2.3971706552957568 98 678 97 476 93 265 91 575 95 638 90 166 91 288 94 200
12687 0.6280647696970918 1.6040358433134658 3.9377638362427545 90 95 95 0.41432917224833482 110 269 118 438 109 291 108 231 107 331 123 387 106 338 104 280 105 328 103 306 102 286 101 296 100 275 99 272
12897 1.5925669677711591 0.64154348952362361 1.569044050519069 204 206 192 0.41159459949702271 107 39 104 123
12688 3.5555718058919017 1.2485967410915844 5.7395562351960345 177 180 173 0.3571770964965198 110 366 111 375 112 507 109 337 113 512 108 421 107 401 106 400 104 391 105 291
13414 -0.066523363685971823 1.5202942446871304 2.6993712361865034 135 137 141 1.8530529261478124 97 134 98 143 96 131 95 124 94 158 93 117 92 118 91 63 90 42 89 38 92 49
12689 3.5986748969167954 1.3292398818879483 5.7505367010104429 193 199 189 0.68364245077931329 110 367 111 376 112 506 109 338 108 318 107 402 106 401 104 403 105 292 103 423 102 408 101 418 100 480 99 432
13923 -0.31009713112922416 2.1447401667413373 3.1913548965894565 128 127 109 1.6290739631487265 94 615 89 504
12690 3.6158092718856731 1.2471932881396883 5.7166779792402096 141 144 137 0.3054372006268754 110 474 111 382 112 505 109 339 108 477 107 362 106 403 104 299 105 294 103 349 102 319 101 339 100 328 99 327
12691 1.2685070494571873 0.56277377804537898 2.1089992027795432 57 57 59 0.067689166664285844 113 176 108 347
12692 -3.9125533483063379 2.1134841725024485 5.5054967198428635 152 154 141 0.66100575569646947 110 421 112 401 113 600 114 466 109 424 115 427 110 684 108 422 106 491 105 389
13412 2.2806516728983568 3.9494598407634331 4.2147718772647593 134 136 125 0.37088564156430515 97 110 98 104 96 88 95 94 94 113 93 76 91 87 90 85 89 70 58 96 57 100 56 103 55 102 54 106 53 126 52 105 50 115 49 100 51 83 47 106 46 105 48 117 43 107
12695 3.4955622210860384 1.0575996336480773 5.8456898851457373 162 165 155 0.36265572887825942 110 560 111 537 112 562 109 463 108 540 106 511 101 373
12696 1.5827925488540855 0.79102190760313507 6.2968211646669605 146 149 142 0.17865573976304247 112 539 113 547 109 486
13422 3.4909200486853558 3.8863931620258465 4.1358376328455728 139 140 126 0.22924860674488473 98 287 96 260
12697 1.0466177387859124 0.5677934901674232 2.9762333890212753 0 0 0 1.7318520174129586 112 454 115 498 116 485 113 487
12698 0.45793630849837974 1.7211602160363553 2.9847569600051815 51 76 92 1.6719121292322445 116 945 109 554 106 471 105 471 100 349 99 266 98 313
12699 0.5617654067675687 2.1764421252534434 3.6954341419051087 106 115 112 0.50404225919650558 113 685 109 579 107 521 106 454 104 454 105 450 103 382 102 370 101 345 100 273 99 275 98 258 97 276 95 183 94 209 93 165 92 161 91 156 90 182 89 168 87 145 83 127 79 157 77 139 75 173 74 161 72 157 73 139
12909 0.036634551457627798 1.8042188344280374 2.7867939332911251 116 115 97 1.6491586275020114 106 320 107 372 104 304
12700 0.58822080409672584 1.6248141958907047 3.8077317872231822 0 0 0 0.10427254932209623 110 639 113 682
12701 -0.083712782284714862 2.9708387591186187 5.4250637891963382 0 0 0 1.3354232926348959 111 631 117 935
12702 0.68951100757545403 2.0268674795812474 4.4386015209122656 76 94 104 0.9995823623357224 110 628 111 747 112 906 109 592 113 785 108 677 114 743 106 647 104 643 105 617 103 496 99 539
12849 3.6229552565940715 1.0719621681801983 5.8209971093297233 139 140 132 0.23968252202602525 107 290 108 235 109 246 110 274 106 246 104 214 105 214 103 207 102 242 101 271 100 246
12704 0.68817345566453281 1.4107779579524886 3.9518072654906775 0 0 0 1.6089024607685001 116 657 118 668 117 785
13008 -0.022372668789034343 2.1987358075042267 3.0802594321405325 167 173 157 1.5685666041873794 104 761 103 293 102 255 101 59 89 513
12705 3.4402374051978573 1.2227397573351415 5.8422226040062561 182 185 178 0.20642560697412321 110 680 111 563 112 791 109 747 108 526
13012 3.483198126759897 1.1562832578387434 5.8057028533340365 138 141 134 0.16214665725260305 112 540 103 422 113 394 100 412 99 397
12709 0.81099778773240061 0.84880944721559615 3.3976985175421008 0 0 0 1.3976762444376583 115 502 118 956 117 949
15927 -0.50216991714246739 4.9520716250763437 3.7364206744078774 152 152 140 1.1895831064514653 42 552 43 643 39 749 41 671 37 732 38 597 38 773 37 575 40 788 40 789 36 709 35 635 34 823 33 795 33 841 30 854 30 856 32 838 31 839 29 858 28 873 28 895 27 839 27 841 26 612 25 1031 24 1082 23 819 16 1021 22 999 21 1001 20 771 19 770 18 781 18 975 13 922 17 1005 14 954 14 955 12 1019 15 756 11 973 11 1088 10 1118 9 672 6 599 4 701 8 937 3 620 1 806
13521 0.61729057646235175 1.5090476271344389 3.7655629545953011 84 92 94 0.28346887851272073 96 531 97 483 95 538 94 499 93 572
12710 3.6146882929448281 1.2667782298026495 5.6822340466729093 198 204 194 0.1702111915049051 110 790 111 806 112 863 109 877 107 771 104 675 105 759
15579 1.8121640395974725 1.1506683992106299 5.9829104267059652 155 158 151 0.84244330953715707 45 75 43 132 42 131 39 141 41 68 37 135 40 142 36 119 33 154 30 133 32 161 31 153 29 112 28 170 27 113 26 165 25 173 24 175 23 183 22 131 16 190 21 133 20 177 19 125 13 120 17 116 12 118 15 174 10 185 6 115 4 169 8 127 3 166 7 165 1 161 2 159 5 203
12857 0.32823125284254329 1.7822917848050464 3.2536369261116196 71 104 118 2.1600490744148066 107 322 109 363 110 390 106 326 104 324 105 320 102 276 101 287 100 256 99 239 98 244 97 245 96 174 95 176 94 199 93 221 92 189
12712 -0.57710682926449652 2.1954549965206653 5.4631899121150997 115 120 123 1.326772341999447 111 871 113 931 117 425 109 888 118 437
15416 1.6622967322344688 1.0528186618443578 5.9532570065802028 136 141 134 0.29826206214274997 54 268 48 300 39 355 41 332 50 242 51 260 37 302 25 482 24 563
14042 -0.046204579670789864 1.4914386433718188 2.8158900477706639 140 152 166 1.6287749619711016 93 521 87 471 86 463 84 397 83 447 79 466 78 437 77 453 72 459 66 446 59 499 52 505
12715 0.64652379171959662 2.1356989533827777 4.5785989551404054 29 48 60 1.4468518773986905 114 744 115 613 117 794 118 798 113 790 111 626 109 707 137 843 136 864 135 838 135 994 136 1049 134 974 133 970 132 1019 134 860 131 784 130 933 129 1022 128 912 127 809 126 764 125 864 125 942 121 716 123 736 112 825 103 495 102 474 101 512 104 626
13535 0.25953647699123805 2.265180946025779 3.3602271332818221 53 79 61 1.7858187186218786 99 596 95 627 94 546 93 581 92 570 91 551 90 390 85 308 84 327 83 343 82 258 81 259 80 254 79 259 76 265 78 250 77 251
12861 -2.4504684952131677 1.4131259592847671 5.8872579821117066 150 154 141 0.52845041181276708 107 473 108 432 109 433 110 436 111 438 112 436 106 476 113 466 104 473 105 479 103 365 102 357 101 405
12716 -0.45691802662554287 1.2995568213555952 2.9780004139673744 105 104 108 1.7894807752148969 119 698 118 594 117 728 115 765 114 750 112 868 111 784 110 774 109 796 117 742 118 851 115 766 116 711 114 751 113 816 112 869 111 785 116 883 115 761 108 755 107 764 104 646 105 757 103 692 102 246 110 256 100 250 100 686 99 246 99 641 97 556 96 539
15410 0.71803127472405548 2.5475281570194497 4.81167570519181 49 61 68 1.4857387865411082 46 163 47 160 48 199 45 237 43 272 42 233 39 256 41 215 37 255 38 177 31 467 29 564 28 783 27 665 26 791 24 796 23 1094 22 1143 20 1099 21 1090 22 1104 24 1096 25 760 19 1100 17 1042
12717 0.57442019254359533 1.2329847657213722 3.4261490103285008 19 22 27 0.29980073771575894 119 935 120 935 118 970 117 966 115 1000 116 976 114 967 113 964 112 964 110 871 109 857 108 815 107 688 106 770 104 712 105 706 103 663 101 618 100 577 99 591 98 658 97 657
13529 0.7014094077308789 2.2906039204913649 4.8621686545855312 86 102 115 0.71645741622860581 97 496 95 596 93 452
12718 0.49707828055432879 1.1564680461128485 6.0900204278935028 84 88 83 0.52653006764645549 111 804 114 822 115 845 116 682 122 598 123 589 124 664 121 730 109 839 108 695
12719 0.16878363031962765 1.2071315343440421 3.2037431840228554 30 31 35 1.3826839207097268 109 133 110 132 114 151 115 97 113 256 108 348 104 125 103 249 102 98 100 343
12720 -0.064317554312017688 1.1249060243005222 4.0300903597699165 124 128 126 2.2581052579197571 113 279 116 627 112 418 117 761 115 1010 116 963 115 799 114 977 113 973 109 846
12724 3.3787679963547816 0.82669621688740325 6.0214948204461534 138 141 134 0.70672721037318986 109 34 110 34 111 33 108 27 107 49 106 48 104 49 105 22 103 48 102 57
15879 0.99346175488662924 1.1179882497003393 8.8648759085515412 156 163 155 0.92277750620626786 47 42 39 143 41 169
12726 -0.075054732493419249 2.5787153295881367 3.5155305802702808 157 159 145 0.84149036112711317 109 136 110 117 108 86 107 84 106 75 104 34 105 53 103 28 102 19 101 18
13316 0.27254861235744998 1.0831799603324292 3.0903060370816897 174 184 196 1.5563081302491595 99 568 98 555 97 553 96 518 95 518 96 517 94 484 91 457 90 407
12727 -1.3061237964293451 4.4991094494318071 4.2324271286186299 189 190 174 2.287971113175729 112 242 108 87 113 269 107 83 106 58
12728 -0.47908730687927203 1.2235884016760679 3.0962543468851926 137 132 129 0.87289924666037899 109 41 112 52 113 60 108 92 107 80 106 82 104 69 105 80 103 94 102 94
12729 3.809536634457547 2.4143846854364694 5.0720890596734431 128 131 120 0.39583755393319764 109 117 110 112 108 126 106 124 104 120 103 104 102 92 101 109 100 184 99 104
13835 0.75367898602639238 4.3551636473743454 3.8653499292597351 136 136 126 0.34084646829383108 92 141 90 78 89 62
12730 3.3389249181033036 0.5653378783215991 6.222053935902804 146 148 143 0.39884203307621757 109 119 110 116 111 126 108 127 107 124 106 121 105 118
12731 0.37968386967105661 1.4873112996040172 3.1119937570652825 127 112 19 0.95096526087089883 109 134 108 137 110 133 111 144 107 135 106 135 104 126 105 129 103 113 102 99 101 116 100 148
12813 0.09386838824618475 1.0309730599271705 3.2026313484883295 82 89 98 0.47917129197612285 114 718 115 592 107 678
12732 0.087095494790915218 0.97646281324842743 3.236764118041481 177 184 194 0.94078650907164263 109 164 113 137 108 154 104 124
15362 0.75818370671299695 5.2907373582952273 3.4730085305182814 163 163 151 0.79174311750521231 49 502 46 479 44 624 45 644 41 546 37 587 38 614 40 548 36 610 35 649 33 801 30 875 32 814 29 860 27 858
12733 -0.097173891364297271 0.8758725233191893 3.6517093034315709 166 172 160 1.2596306586687491 112 282 108 157 107 213 106 473 104 470 105 318
12734 3.7247704605617118 1.4762018959430585 5.5509251653908178 162 164 159 0.70870653405235307 110 183 111 185 108 187 105 167 104 167
12735 1.6109577230555394 0.78451364376515031 6.1689164557871168 151 154 145 1.3321652132724449 116 106 108 208 107 183 103 167
14118 0.48440443458778165 2.9875617790359077 4.8495082771140341 63 64 60 1.4087859237411191 90 458 91 522 94 346 86 491 93 411 92 284 90 277 89 293 88 239 87 228 87 372 85 355 85 501 84 409 82 274 82 500 81 277 80 362 79 280 76 310 78 392 77 194 77 367 76 198 75 275 74 367 72 202 71 255 70 180 66 208 64 230 62 310 63 229 67 238 60 234 59 258 58 247 57 256 56 287 54 284 53 303 52 254 50 255 49 404 51 272 47 419 46 368 48 438 44 379 45 451 42 517 39 606 41 507
12881 0.53058880118731044 2.0134672656216139 3.5187494185886297 80 109 97 1.4863358751909388 114 961 106 772 115 996 104 609 103 581
12736 4.0333846768645474 2.0907726871769108 4.9962186021960866 129 133 119 0.09174130582103586 109 245 110 272 108 234
13398 0.21200916802995648 1.0413280576522694 3.9743865033344141 74 75 72 2.150075983127818 99 237 108 355 96 133 93 23 92 28 91 36
12737 0.2240872066041264 2.7057874274018152 3.9683209311915499 148 146 133 1.3579501813972856 109 238 112 545 113 429 108 305 107 164 106 274 104 157 105 158 103 147
13907 -0.28707817129175173 2.4083226746335513 3.5646348233339773 173 174 168 1.8223284735456358 90 594 91 392 89 369 85 316 84 227
12738 3.5749575857420721 1.0579583701917916 5.8566999372582131 166 172 161 0.5236197389036914 109 341 110 368 111 377 108 320 107 405 106 402 105 293 102 324 101 338 100 324
15959 -0.018758911506922719 4.3513708683708048 4.0682002386650913 130 131 115 1.0704091031368421 46 185 41 189 37 193 36 160 33 275 30 206 32 223 31 235 29 237 27 238 26 240 25 254 24 261 21 222 20 230 19 263 14 253 10 272 9 255 8 292 3 258 7 253 2 309 5 233
15140 0.59206944964011088 1.0574267970714704 6.0018380359550152 196 201 197 0.89880858432122113 56 295 50 239 52 224 53 225 54 318 55 310 57 284 58 256 59 267 60 267 61 256 63 263 62 248 56 620 52 535 49 334 51 255
12742 0.028905605758360861 1.1273541653694341 3.0767203273552166 134 141 151 1.4711460903601745 109 358 113 415 114 424 108 430 107 374 106 409 104 317 105 314 103 204 102 343 101 198 89 149 88 142 87 187 85 137 86 142 84 216 82 164 83 194 81 202 75 234 80 180
