# 3D point list with one line of data per point:
#   POINT3D_ID, X, Y, Z, R, G, B, ERROR, TRACK[] as (IMAGE_ID, POINT2D_IDX)
# Number of points: 382, mean track length: 4.7330343902266785
27373 0.014952285066740222 3.6935675471852685 7.1829910950377531 189 131 93 0.15976485081052688 7 3996 6 4037
27374 2.6818957589696897 -0.065244659364431162 7.147339984584332 162 142 114 0.32769520131945629 7 4513 6 4061 5 5031 3 4310 29 4532 1 4179 2 4793 42 4019 39 3450 21 3904 8 3960 4 4172
27375 -0.62641057751934881 2.610253302196885 8.3653511385262416 149 108 76 1.2478598220202048 7 3923 6 4113 5 5447 3 4434 29 5189
27376 -0.21713639540140645 3.3047559721006587 6.9382083406460611 184 130 83 2.1860846550914323 7 4031 5 6476 3 5587
27377 2.8543000740452524 0.32741735943977146 5.7628109698997854 200 188 177 0.68655243582672798 9 4823 6 4126 29 4255
27378 0.10555141272574009 3.9396626292849946 7.0032864181758603 131 87 48 0.55687521555301367 7 4074 6 4131 5 7458
27379 -0.70480414117336587 2.5093155657829196 8.9566109569978085 180 136 109 0.15826070038188211 7 3902 6 4143
27382 2.9779623676748224 0.43993297221463307 5.6561689066178671 0 0 0 0.22155820032907525 7 2674 9 2782
27383 3.2722881025686514 0.57152367114577118 5.8164666086284642 133 117 117 2.0566358374691727 7 4587 9 4827 5 4834
27384 0.076463169539081791 4.0391738303868872 6.879965341975204 165 109 72 0.18401543253235741 7 2287 6 4244 3 5510
33120 4.2612244825289478 0.62893567687046936 5.6932821286290052 161 177 197 1.6519114754009785 21 1262 8 1152 4 534
27385 -0.053965721496477798 3.8304658520268542 7.3412079828977612 146 96 61 0.65613632702652458 12 2629 6 4261
27386 -0.24863645880509758 3.5289848084520696 8.1533197006912026 133 86 46 1.0966693577131739 7 4106 5 5613 3 4483
27387 -0.10862099828807857 3.7491284419524282 7.2065540391004168 133 86 51 0.8568717780981866 7 4194 6 4283 29 5426 3 5401 1 4567 42 4393
27388 0.18110804742944139 4.2593208699272722 6.3143896787853864 175 121 81 1.4800987594160233 9 3406 6 4287 5 5277
27389 -0.65610781815815389 2.7965582486672362 8.3662887865711042 173 127 101 0.60753259329937814 7 4065 6 4304 5 5768 3 4708 29 5235
27390 -0.35684874750028384 3.3331647184158983 7.7232061955759788 159 110 73 0.90870654013340713 10 3351 6 4305 39 6135 2 5632
27391 -0.83869523152590697 2.5501657849112767 8.5314619357448187 145 105 73 0.95917799821348082 7 2262 6 4382 5 3566 3 2967 29 2938
27392 -0.38733286819479806 3.4148452323942435 7.7223683512981589 168 115 82 0.55497125337825381 7 4257 6 4424 5 7411
27394 0.062275622988235524 4.3154929581289361 6.559550058912115 159 115 88 0.1107266516849448 7 3377 6 4511 5 5702 3 5566
27395 -0.26234493962587696 3.7686899670585836 6.7622694784280215 158 106 67 2.1980146570786303 12 2773 6 4561 5 5881
27396 -0.45819316585516556 2.8632810798629502 8.1113673621095312 137 92 59 0.50009197270734695 7 3914 6 4571 5 5291
27397 -0.5737275509401758 3.2697986762660851 7.6602004806746358 144 98 65 1.9388490027084901 14 4351 6 4610 29 4517 1 2422
27398 -0.70113691061202643 2.6118143852019249 8.520949942520776 137 96 70 0.91048718015790231 7 3978 6 4622 5 5665 3 4625 29 5631 1 5429
27399 -0.59229920809345471 3.2212996519187116 7.7654180354139797 213 145 96 0.013555418414218527 7 2335 6 4740
27400 -0.58444746016110616 3.2888293301447873 7.8620440344668001 145 96 63 0.88152065277743974 10 3481 6 4750 5 3618 3 2983
27402 -0.034053019365604814 3.0406113878548662 8.1202987734983818 141 94 68 0.50828993942354439 7 3696 6 4832 4 6839
27403 -0.079681697989901545 2.7367633842581696 8.4661619248849913 138 101 77 1.5473087313372702 9 3488 6 4833 3 2525 29 3775 1 4378 2 5133 39 5290
27404 -0.039217076627736311 2.7062605032271496 8.6308614385273703 189 138 109 1.0884816262789165 9 3457 6 4853 5 3075 3 5878
27405 1.4615474869318537 5.2617195646357242 6.9404103470058658 183 133 100 1.820691258051589 7 3656 5 7187
27406 0.13934913777857461 2.9413126583897293 8.3158823609604458 135 91 68 0.81777062463597205 6 4889 5 7073 29 5820 2 5023 21 3061 8 4848 4 7930
27407 0.045372906365643832 2.7458631184381512 8.4405250495629662 186 140 114 0.067924769044906977 7 3531 6 4900 3 5915
27408 0.53719595140046861 3.5659078224717167 7.4104254887232646 142 91 54 0.11722941395019686 7 2418 6 4926 5 2960
27409 -0.11465179269483904 2.3507229209084239 8.9372428721683921 146 106 83 0.49009868970625103 7 3498 6 4940 5 7095 29 5800
27410 0.03012542600881233 2.7016073039340283 6.7793853579323793 165 106 64 1.2647416384192618 7 4742 6 4950
27412 0.018306278261141069 2.5507669167886911 7.4720314309337708 145 89 52 1.6209175835982297 7 3499 5 7208
27413 0.40834425871170743 3.0370914287709185 7.6907701847041343 176 110 65 0.5070041821716863 7 3482 6 4986 5 7264
27414 0.9296088335336794 3.7980985440997017 7.3247508498202674 122 75 45 0.11690169563218866 12 3129 6 5000 5 7296
27415 0.64092572890992716 3.0593734900407847 8.3713182850712595 153 97 60 0.58902719402747683 9 4493 6 5014 5 7301 29 3046
27416 0.9279218946677984 3.1910304707736352 8.2871576911681295 177 112 58 0.66607645128278581 7 4303 6 5049 5 5223
27417 0.76662210581823054 2.7852142790509493 8.5563512779153719 156 103 59 1.2458891445800495 16 3593 29 5948 1 4251 42 4075 39 3659 21 4210 8 4452
27418 0.95934005370972042 3.0330707167152577 8.4397569996187922 173 113 61 0.83211946816601434 11 2423 6 5065 5 2765
27421 1.5287634303166029 3.9950675497108352 7.1338764422032774 159 112 94 0.23917858116370611 7 4317 6 5074 5 5243 3 4339
27422 3.7170775875023661 6.1113317423897442 9.831333169977313 145 94 59 1.8941528316189822 7 2821 6 5109
27423 1.5743782224956535 2.6873396404623833 8.4170843842693728 125 68 15 0.54042967633717998 7 4403 6 5126 3 3468
27424 2.2169350504226037 2.7821843283465113 9.2356881301210212 162 105 67 0.34015125367006505 9 3883 6 5147
30147 -0.52490797147831714 2.9032833720113929 8.2322612060134261 130 81 49 0.90491101772701443 9 4226 1 2356 39 4740
27425 2.4098400419471311 2.5674152086769646 9.1885054459259745 109 81 58 2.46868949590099 7 2753 6 5151 21 3967 8 3864 4 2304
27426 2.8575843859441177 1.3243069928529549 6.9841994990381648 58 27 7 0.57734562770685527 9 1706 14 1796 6 5157 2 3021
28103 1.5844670660008124 3.1649292760062542 8.3559018756676586 162 100 39 0.60887079392853649 12 689 5 756 3 732 29 709 1 666
27429 2.7900546169385079 0.54527696485592181 7.7129413923196628 79 53 36 1.0891707070471424 9 4703 6 5181 3 4353 21 5130 4 4206
27430 3.0030680725247678 0.4964724034749069 7.9455271324237824 53 26 5 2.2109827935434967 7 4483 6 5194 5 5070 29 4195 3 4348 21 3924
27432 2.6737123927615025 -0.10103201252905457 7.0658663020635011 165 150 129 0.41478653014799449 9 4746 6 5222 5 5019 3 4298 29 4863 1 4162 2 4780 42 4005 39 4691 21 5085 4 5784
27434 2.5824324939792294 -0.13555949156149796 6.7414926522082306 136 121 98 0.50315514866098721 6 5243 5 4066 3 3016 29 3311 1 4134 2 4741 42 3971 21 5051 8 7241 4 5741
29141 2.424302320796905 2.5549207014596669 9.3261491745506966 132 88 59 0.86906064080770484 5 5127 10 2376 3 4720
27435 2.6155213308361991 0.075141881202232447 6.3768702584804764 106 89 76 0.46975657003373356 7 4537 6 5245 29 4382 1 4880 2 4703
27436 2.6916650354767713 0.23250272314490739 6.1584548709805889 168 148 139 0.15193724189433233 7 4535 6 5249 42 4907
28111 4.2347107742988568 6.7233135367555947 10.552955087179305 0 0 0 0.22584634447780064 6 1366 13 24
27437 2.5797820191104166 -0.11295285423869185 6.6605644115595988 160 143 123 0.37985205448765075 7 4801 6 5252 3 4273 1 4127 39 4640 21 5039
27438 4.2588212461500445 -0.28603634779762693 5.8908631056272629 205 206 208 2.7246239733896331 7 2959 6 5269 1 3563
27439 4.1312662617100857 0.40773605857752315 5.4573767362027645 202 207 215 0.66042484358486653 7 3075 6 5277 5 4424 3 3819 29 3940
29138 4.0944437053574925 1.1534790182714398 6.0674929772526633 149 140 131 2.0278570285751534 5 4868 3 4151
27440 3.9264085514203795 0.36040515410174873 5.4696740879219456 171 181 190 1.0664028887863233 7 3093 6 5280 5 4439 3 3826 29 3948
27441 2.9424582723173058 -0.84003825849081104 6.7267974860877517 0 0 0 0.2555746796135141 10 3901 12 2635
27442 -0.0019621111596231366 3.996302834179716 6.9490645052871463 176 124 92 1.1553573749861064 9 4318 6 5341 5 5485 29 5486 1 4510 2 5239 42 4334
28119 4.9907171777362676 -0.530492441823886 6.6527089446050907 149 159 161 0.20965387266654187 9 1939 5 3704
27445 1.7250179352597115 2.7566723609496244 8.5240893897317509 127 71 22 0.25148569267947884 7 4412 6 5424
27446 2.5724429190946339 -0.21092390468363051 6.6977466314783802 149 135 120 1.7756635625153272 13 3203 9 2798 6 2998 10 3970 9 4812 5 4052 3 4238 29 3299 1 2319 2 4702 2 6119 39 4615 21 5027 8 7212 4 5708
27450 1.1663518825080172 2.3852753715754593 9.089416158279704 162 133 112 0.93843513670082479 23 563 22 306 20 704 19 555 13 420 12 532 11 604 10 584 7 596 6 1804 27 2076 26 1839 25 3208 24 1254 23 1355 22 1281 14 1478 13 1703 12 1707
27451 2.4866651406564984 3.3374947989822701 8.0350992147236493 116 71 40 0.72576084933166096 10 598 11 698 6 1566 35 3242 36 3046 33 2949 37 2843 34 2908 38 2325 32 2379 41 2852 40 2523 44 3023 43 2132 31 2147 30 2484 27 4729 28 2389 26 1766 25 2247 24 2211 23 2255 22 3002 20 1346 19 1290 18 1419 17 1337 16 1155 15 1143 13 1384 12 1106 9 602 5 1477 3 1420 29 1429 2 1562 42 1425 39 1586 21 1808
27452 0.59722856485042242 1.9686590379651965 9.5724484366291129 142 110 91 0.57624686922423374 9 1356 7 1557 6 1780 20 3064 19 2777 16 1467 5 2748 2 1879 42 1148 8 4623
28127 4.2485670504047208 1.1238862076260605 5.9907597047740362 191 183 180 3.4535124814765314 6 2956 5 4781
27453 1.6665721520924808 4.2051924403439092 6.881593840537839 155 111 89 0.72764952686395412 11 2487 10 3002 6 5079 13 2094 12 3070 7 2846
27454 3.142132329053223 1.5433700839936533 6.757574331657068 48 21 2 1.3980589991488686 9 4911 6 5164 15 3374 14 3335 13 4778 12 3886 10 2853 9 4676 7 2734 31 6067 1 4211 39 4722
29145 14.573433014271146 0.43559529944680875 10.6950577057017 156 162 166 0.47917144473477957 10 134 29 3
27455 1.2211041432288314 4.0522962987519273 6.4520971393184299 120 79 57 1.8232018020401071 9 4022 6 3208 10 3073 11 2547
27456 2.7739484734491162 -0.11908427322615546 6.6778122971944018 94 82 62 0.80634443798445854 6 2991 12 1359 3 1194 1 894 2 1633 42 2031 39 1652 21 3839 8 3734
27457 2.6913422736154651 -0.58802733846120325 7.3041560011622053 139 157 169 1.4861745339811061 9 3531 7 4602 6 3862 12 3724 10 3690
27458 3.6546001854940329 0.35842918830848575 5.4674648264785812 125 123 116 1.3931938844781058 15 2876 13 2581 9 2653 10 2160 6 1213 11 2049 12 2085
27459 3.6535895606868647 6.1274935382873652 9.2944073418330628 180 130 107 1.8628189392655763 7 23 9 18 6 19
27460 6.0724492585278371 -1.1816139718829999 6.9034028969552601 61 84 98 0.97705387112195952 16 4 6 55 19 26
27462 2.9760921606871884 -0.50047096182703144 7.0258413043851178 127 108 99 1.3114789786151593 11 87 5 103 3 187 29 196
27463 4.952392899974833 -0.15314258150601612 6.5190940618144344 169 157 135 0.6727228597315924 7 180 6 193 5 253 3 179 29 485 1 416
27464 3.9023466001464024 -0.44413725495844908 6.4514449178748841 185 183 171 1.1098520048464171 6 195 5 465
27465 3.4939292490964844 0.35927764629584313 6.2902183776195653 111 89 78 1.2645758646876311 7 460 6 358
27466 0.87931494858017134 5.8048312831963562 10.479042532986876 174 124 88 2.7182531661486555 7 401 6 434
27467 4.0958190757500139 0.52479278946186136 6.4064701442681491 125 111 109 2.1881346689999011 10 255 7 654 29 2218
27468 1.6343708389300622 4.4601040631422864 6.6432881388579883 181 129 105 0.2267926590207878 9 566 6 748
27469 -0.49910223060935571 2.8695601534072943 8.2864862133934967 154 106 76 0.64779271691832885 14 716 6 800 5 668 3 717 29 887
27470 2.5954434011686955 -1.1502649528864219 5.6792009178601655 159 172 176 2.3531062313026814 7 414 6 859
27471 0.31177859160172344 3.0989865018828455 8.2526680972771036 141 95 66 0.47205360287391224 7 887 6 992 5 1071
27473 0.1169255668212805 1.6016583366501522 9.9957604172752053 179 139 114 0.5545180088998265 7 1550 6 1766 5 1787 3 1658 29 1628 1 1561
27474 3.9069136127013047 0.81206427836071426 5.6093022439604745 128 130 127 1.8209770259336651 6 1989 5 1357
27475 3.5972308608054337 -0.50313400151611798 7.2797704610366489 132 109 99 0.83608004902240729 6 2003 5 1349
27477 3.2462631743423747 -0.33010835433195584 7.8316969008818349 124 121 112 2.6789826069600222 7 2683 6 2992
27479 3.720701952594176 0.12500901702796693 6.1433686456179055 188 178 176 0.81653903621751711 12 3771 6 3511
27480 3.8402199786294311 0.66582066802960493 5.6922267990048834 193 181 165 3.0284610688077054 9 2683 6 3550
27481 3.0887315729226255 -0.38166139182681974 7.601036364254937 192 193 188 2.0278371579974639 7 4577 6 3714
27482 3.5302182295839306 0.73333627524031086 5.8464761852169325 140 125 120 0.90188091382371793 6 3745 5 4822
27483 2.56715118156789 7.8465011506741371 9.9098767836237212 178 121 91 2.5353531177353146 7 3836 6 3834
27484 1.8718099043521164 3.6302863366597817 8.0683204603417025 124 65 5 2.1047776696800096 14 4685 6 5117 5 2477
27485 2.8933744119537761 0.56460084220805129 5.8658735672673714 222 200 191 0.041769579342957594 10 2315 3 4234
27486 3.3864605183913454 1.8160305017110061 7.9554022049988751 69 29 3 0.34424139080152927 5 0 3 0
27487 2.1572616909405053 2.3784204135310278 9.6989448930073028 177 136 123 0.83036047615589348 5 3 29 4 2 3
33017 2.2209203126552843 3.3367973741121362 8.0555229231314947 171 110 76 0.26280946330706756 21 241 8 212
27488 22.509056004033329 0.55120066610436358 15.021503577259702 0 0 0 2.2459378983510518 7 29 11 142
27492 3.6475208317419341 2.0555581039338948 7.0923394979738452 74 39 11 0.68900609128313794 6 37 5 35 3 42 29 44
27493 0.94769496171921919 2.805366026301098 8.6962347604004844 160 106 68 1.8994506237943884 6 38 5 36 3 33 29 22
27494 1.4232372721119237 -1.6640719803186341 3.4237822798043949 161 178 186 1.6227756485674361 10 22 5 47
27496 5.60448743943879 3.3433589932336298 12.917706290936179 142 130 130 0.99347631419796567 9 17 29 48
27497 3.3560716821019843 1.6062513533558138 10.30328956182759 201 158 152 0.65355183693668861 6 94 5 79 3 82 29 125 1 85 2 81 42 112 39 68 21 117 8 117 4 73
33987 2.6070006324927899 0.73064433961619391 11.279223019953228 0 0 0 0.39165942594638997 21 437 39 419 8 557
27498 0.53059198608160107 3.3327580022159506 7.8729568542960626 132 78 40 0.33124455567014333 6 75 5 80 3 75 29 60 1 75
27499 0.3240268598559054 1.7030464021579548 9.8518988514288885 166 124 102 0.56911444713247683 9 92 5 84 3 84 2 79
27502 2.8280544367730096 -0.32355151003517607 6.5494936634979872 167 155 140 2.2684582880518835 6 142 12 296 16 576 5 104 7 201 3 99
27503 2.9360670256660475 -0.70255894518343376 9.0982818184875143 134 153 167 1.648928309835632 15 44 5 111
27504 3.6634578653243293 2.6173203216442453 10.164686992270479 134 130 129 2.0712574465158093 5 116 3 111 29 67 1 84 4 36
27505 3.6501395248552178 3.5850910472997355 8.2189531086626353 96 91 98 2.0695483515683155 29 126 1 116 2 120 4 1224
27506 0.91639352407809882 3.6357386725910534 7.7857427643109753 151 98 48 0.42165005718798282 10 55 5 129
27507 1.6594716357107651 5.0812699031187405 10.245296302398042 0 0 0 1.3901409842143235 6 112 14 91
27508 -0.78507138814797528 2.1476909349572142 9.0162718496720782 170 128 103 0.82544398452792167 6 126 5 145 3 138 29 145
27509 2.8404364327668903 0.49498393947798019 5.9196411261401778 127 108 100 0.47083019676329735 6 209 5 149
27512 3.36608480378993 -0.96896328289396139 7.3037137534340388 159 158 140 2.0333091694815031 6 199 5 165 3 97 29 108 2 129 1 153
27514 3.6091383794232579 0.45870400250492999 6.4201756619436319 135 110 103 2.06828927070061 6 202 5 196 3 100 29 110 1 155 2 98 39 51 21 52
32981 2.8288849165027856 3.6487238560971624 8.9014934385688207 139 73 0 2.0498322804724483 39 1574 21 2106
27516 0.81060294605443528 3.3220101381621401 7.7093000365329214 139 85 39 0.54020532918209985 6 234 5 239 3 232
27517 0.66966153086440117 2.0670925110370253 9.6340963613218396 129 96 81 2.4169688413894934 6 326 5 240 3 233 29 220 1 209 2 133 42 136 39 116 21 122 8 121 4 112
27518 0.68145639551290571 1.7829250262132732 9.8259694064201888 189 145 116 0.6760915572820525 6 229 5 241 3 235 29 222 1 212 2 220 42 201 39 176 21 121 8 186 4 111
27519 2.7795392620077219 1.510749391862062 7.5684414509023101 67 30 0 1.3788066936166778 6 219 9 186 5 249 3 207 29 235 1 249 2 283 42 219 8 223 4 253
27520 3.919874404006368 4.2239864494451522 7.0438702107170119 143 102 82 1.2067466641053564 9 220 10 232 5 255 3 245 1 226 21 190 8 689
27521 -0.054588096116639367 3.9863189121143505 6.9516634014351792 196 140 96 0.74723710935282239 6 343 5 257 3 328 29 335 1 311 2 393
27522 0.69216893703323723 2.1295983245125329 9.3643190400853289 150 108 92 0.46091192989807817 6 327 5 273 3 244
27523 1.6366748796071589 3.9684993544321094 7.1344510134989427 182 135 112 0.92087595035818193 6 329 5 276 3 254 29 262 1 233 2 267
27524 0.90234251720409731 2.1305982826470955 9.3829617723462917 150 113 95 1.4981278046785631 6 325 5 277 3 250 29 341 1 327 2 363 42 361 39 341 21 350 8 341 4 325
27526 0.83988707300307708 1.5431517858926382 10.239444402286413 191 150 128 0.69422242519738997 6 246 5 284 3 258 29 256 1 328 2 259 42 243 39 232 21 227
27527 2.2278523157608832 3.884904758166182 7.5905456257161079 145 103 81 0.31369136881853948 6 247 5 285 3 261
27528 6.5544671694702403 4.3776410811921549 7.2284795885155395 169 114 68 0.458411360502749 6 267 5 304 3 417 29 286 39 254
27529 4.0818658922956352 -0.29220523480689087 7.7942946641000361 144 128 115 1.9442423201458028 6 282 5 320 3 290 29 471 1 428
27530 4.3100106538803766 0.35405762246378281 5.6017430226877574 170 175 172 1.8226483170289762 6 290 5 325 7 265 29 304
27532 4.2020137357681859 0.47209735002419478 5.5201933134728352 170 171 166 0.61086665357828607 6 287 5 335 3 450 29 460
27533 -0.19631109354840207 3.8365249956186829 7.0464341290877206 207 147 97 0.41695741364438016 6 344 5 348 3 326 29 334 1 309 2 246
27534 4.1106588394458976 1.5477839494781165 6.423319825557166 212 192 193 0.70873414045665506 12 326 5 358
27535 3.582656793991176 3.9906544634173708 8.9133956443677285 142 83 27 1.2985646441995156 6 380 3 755
27536 2.4436561956610183 2.7157161589104297 8.9212229217334809 90 59 5 1.2666024773850184 5 373 29 274 39 205 14 514
27537 1.7193692797711078 2.4089346281437591 9.2945285789431065 158 117 99 0.8416961699832326 6 389 5 379 3 364 1 355 2 352 42 350 39 334 21 344 8 337 4 320
27538 2.6378654420955012 4.1358759588608676 9.7232426120833768 133 74 9 0.38869272186270171 9 1370 3 370
27539 1.2203815866268006 2.7870111414088203 8.5626180951404045 178 117 65 0.7432655817776519 6 447 5 387 3 255 29 383 1 231 2 241
27540 0.81029458720137859 3.5378126307116879 9.1482553259647741 139 93 60 3.6261980415859387 9 302 5 397
27541 0.18059823008543119 2.551473591705812 9.0376639508544425 199 150 118 0.19897598829742766 6 401 5 398 3 338
27542 0.7277302784994919 3.9210447097903511 7.1746476838029292 170 124 97 0.81483994170960716 6 410 5 401 3 384 29 397
27543 0.62427955561524084 4.0163538253470721 6.9772109359293264 139 91 58 0.62103376027713386 7 420 5 406 29 398 1 374
27544 0.02941348807153087 3.6626173140324565 7.0766359508590746 161 111 74 0.57082160735954512 3 423 29 408
27546 0.073058475994960528 4.3638293187184862 6.5186223871895752 86 46 21 0.63515819835578169 6 438 5 432 3 403 29 411
27547 -0.3826382398032056 3.5380605854868312 7.3773092542749286 181 125 80 1.1910110164489782 6 437 5 434 2 528 42 508 39 504
27548 0.32353755041280491 1.4289302297031505 10.174370112303729 148 116 101 1.6203751677351987 6 398 5 439 3 284 29 347 1 320 2 252 42 237 39 225 21 216 8 291 4 228
27549 1.5604552490125414 2.8881965162436929 8.5084393528670468 135 76 16 1.0371742455350703 6 394 5 442 29 381 42 355 21 346 8 338 4 321
27550 3.6839986244753105 -1.8901761718012049 4.2126872833560975 0 0 0 1.3466225731803125 6 453 23 63
27552 4.2712413260948638 -0.27027083937694352 5.7694286874208958 145 160 165 1.5940878818990682 9 255 5 459
27553 4.0332796515920277 -1.1131228172299441 7.382113256003171 191 204 213 0.57470396281725511 6 588 5 464 3 299
27554 2.7210382279015226 -0.86162624827227519 6.016247810224967 219 223 224 0.2409431630409512 9 102 3 291
27556 2.856909066857344 -0.41046210795497085 6.2138263256192507 42 48 44 0.56809790827485118 5 476 3 454 29 282 1 262 2 321
27557 2.0271571685891447 2.4675480404728027 9.1642311893945951 201 151 124 0.8545424366502079 6 223 5 488 3 623 29 273 1 351 2 278 42 265 8 211
27558 2.8996287807138956 -1.0727527037765825 5.6217335925759189 197 209 213 1.509142299994447 6 602 5 489 3 356 29 1139
27559 5.1442884449906021 -0.14873765754912407 6.2350046891643638 187 201 210 1.0406554837696878 7 631 11 546 6 600 29 850
27560 2.7824205897430114 -1.1902627944622024 5.7605278909673521 187 207 214 1.9692976281023626 5 492 3 360 3 2368 2 896
27561 4.3931514949198576 -1.0026093774104352 7.3133731519901826 154 162 164 1.331222437589495 6 591 5 498 3 482 29 487 1 445 42 1568 39 2539 21 3598
27563 3.8985123844746146 0.25972910294247348 6.740698462520248 152 141 134 1.0720245537349236 7 513 5 515 3 492 29 505 1 764 2 838 42 883
27564 3.5370387554920844 0.093035473712850536 6.7888335378704099 118 99 92 0.79400256577961192 6 888 5 518 3 825
27565 2.6232745695672861 -0.47654751499273951 6.7872112735299837 191 191 191 0.98044843287300165 6 892 5 521 3 499 29 513 1 468 2 828 42 760 39 444 21 450 8 445
27566 4.899795334586079 0.13263934027208629 10.923897861764605 198 178 171 0.66526646379404242 10 300 5 533
27567 3.0746404791638366 0.98105404422762799 6.4015166658921956 82 32 0 0.7734383918563853 6 564 5 534 3 512 29 534
27568 -0.73796838827690048 2.2483184651441208 9.0165279203062099 181 136 107 0.73533497352184118 6 482 5 535 3 553 29 566
27569 4.36209275959874 1.8940368743119769 6.9249535798084603 0 0 0 0.49680476113856398 10 670 13 293 14 231
27570 7.1754266012221732 4.2099784664870201 7.5134088838856794 163 111 62 0.88280574300216186 7 537 5 537 3 513 1 333 2 330 39 308
27571 2.7864539179169285 1.2726717923366397 7.2139056762537539 64 27 0 1.6932875863703838 6 376 5 543 3 519 1 499 42 394 39 361 21 471 8 475 4 439
27572 2.8452541531744338 1.6931981601384003 7.3889121422383344 85 55 38 0.51626477781031987 6 551 10 505 5 548 3 523 29 545 1 475 2 510 42 500 39 775 8 702 4 656
27573 2.7203666864111566 1.5780432021967701 8.727317196205556 131 127 126 1.4593273193350045 7 24 3 531 29 489
27574 3.4345906729818236 2.3377643215792783 9.6972037402377183 129 124 123 1.2265860741339039 6 520 5 556 3 532 29 366 1 346
27575 -0.62517446124457898 3.2569758847505059 7.8493411638191954 138 89 55 0.66780299430668066 9 391 29 555 3 544
27576 -0.55298396280934881 2.8192618263721734 8.3922653733580788 134 88 55 0.071733572142772678 9 633 5 583
27577 0.11210005114813663 3.9385781018295551 6.9852238730072056 140 89 54 0.57097599745371752 6 430 5 595 3 535 29 577 1 536 2 538
27578 -0.71919186034527671 2.0439003474078041 9.3727564923770377 186 140 113 0.26337704245032417 6 475 5 597 3 560 29 569
27579 0.24479257444829286 2.9557388345940447 8.2084083461840276 167 118 78 0.65222760488588627 6 405 5 615 3 585 29 594 39 1267 21 1383 4 1459
27580 0.27220491086722465 2.0621088119768158 9.4740492357014876 188 143 113 1.1498497790651121 7 583 5 624 3 592 1 549 4 496
27581 1.3857841922638494 2.7113320285582407 8.7718539891584086 164 106 60 0.39779931724446871 6 531 5 642 3 636 2 571 42 555 39 544 21 557 8 536
27583 -0.093348512191335886 3.7137300643225593 7.3432219021201028 185 133 93 0.27299594478646361 6 805 5 669 3 647 29 898
27942 3.8237755341572592 0.36270207103053864 6.6023230497871355 118 98 97 0.47313888703296608 6 3626 5 4700 3 4008 29 4146 1 3877 2 4374
27584 -0.054064923087256155 3.7505345967043864 7.2891571034668656 183 130 99 0.41786047618399347 6 803 5 670 29 901
29985 3.847349441848261 2.0866556613660818 6.8933160462623899 191 154 143 2.5679008920082715 10 369 42 736 39 795 21 3918 8 1500
27587 0.32981939689082473 4.2992955027495352 7.3285966305828989 196 140 103 3.0628027529720971 6 792 1 820
27588 0.2218633114560227 3.5293743730227503 7.5335151011792778 177 122 82 0.076074691910905337 7 808 5 694
27589 0.37593761012000304 3.6812189779324926 7.3729855456011943 174 122 85 0.62093557204037975 6 774 7 810 5 699 3 679 29 664 2 675 42 590
27941 3.3230749275790612 -0.73335955179162604 7.7780360115507312 147 169 183 1.8852787530945869 6 3569 5 4698 3 4034
27591 0.44265802033066615 3.2634846388363341 7.9833154306996317 124 78 42 0.36010210803017395 6 760 7 818 5 715 3 691 29 672
27950 3.8299590701523347 0.97597359222997815 5.8128120382623569 187 180 170 1.8354300002680104 5 4801 3 4082 29 4193
27592 1.3473349229985199 2.8646604594746714 8.5334773230463092 137 85 36 0.61791285130681584 6 735 5 716 3 726 29 703 1 658 2 723 42 666 39 719 21 799 8 630 4 594
27593 0.83203622732466676 2.8186819646287189 8.5372989296183057 179 121 73 0.57250525487763859 6 844 5 734 3 711 29 970 1 639 2 702 42 1014 39 700 21 1211 8 612 4 577
27598 2.0821811194581259 1.9433584921591134 7.9096958030386384 0 0 0 1.1533415600113983 9 842 23 3114
27949 4.310437014384239 1.0435759298563552 6.2577359472790723 108 95 87 3.039033210316294 6 3700 5 4797
27958 3.5274477641560749 0.32490321105508213 6.6926484546410903 109 78 66 0.77403037674383157 6 2982 7 2672 5 4864 3 4154
27600 3.0945061760295758 1.8617417687488653 7.11204155496526 66 30 7 0.70619108384328622 7 674 5 828 3 782 29 770 1 716 19 1090 2 998 42 939 39 867 21 1090 8 1247
28976 4.5194994048422918 0.28310748655297741 5.7474747247643663 159 173 174 0.71156646255532519 5 4391 3 5371 29 3107 2 1723 42 1573
27602 6.2563992690926931 4.1858536028397761 6.8666058635159972 38 37 25 0.45875834010923922 6 664 5 846 3 803 29 765 1 732 2 812 42 739 39 561 21 461 8 458 4 421
27603 2.6348171713751958 0.12149795987725751 6.9168365713819391 168 153 128 0.15612960169594464 7 709 5 858 3 808
27604 2.6387051427758483 -0.18842663587764089 6.9944294285727926 194 186 175 1.4840112050371743 6 837 5 860 39 168 21 158 8 164 4 138
32892 -0.21608597883609484 3.2721782178783649 7.8468281823875099 143 83 29 0.50860985360465183 39 5839 21 6579 8 6377
28971 -0.53474933381105683 2.4960965526993282 8.7271480775420383 172 123 100 0.89641390414968913 5 6433 3 5334 29 2705
27957 0.017273337222588135 3.8504528092484374 7.095161036273999 129 76 42 0.17377435806407496 6 4182 5 4863 3 5531
27607 2.7549712890707032 -0.70713119639353772 6.4010230900726954 168 168 158 0.76255321176627611 6 873 5 880 3 840 29 827 1 776
27608 4.3994416375517922 0.35563529784573056 5.6607069052881469 155 160 159 2.0367637693390059 5 887 3 486 29 490 2 444 1 794 42 437
28991 -0.56505323738306712 2.2589218983333921 9.0968182794597485 162 121 101 0.28340764934919416 5 3295 3 5522 29 2682 1 5050 2 5770
27609 2.7887307261504111 -0.94197812545196835 5.967629974724141 220 235 235 2.320992190545037 15 2782 5 889 3 1144
27615 2.6273238498390579 3.6071886019739963 7.7029200383058836 150 107 88 0.70764227095845111 6 718 7 1138 5 987 29 927 42 682 8 1316
27616 2.4363466994036069 3.8516998253168562 7.4017170151384644 173 128 112 0.4092635689016183 7 1151 5 995
27617 1.1469531350153268 1.2015427616984053 10.630344303886766 138 109 93 0.54003329883833906 6 917 5 1003 3 942 29 946 1 982 2 1072 42 998 39 871
27618 1.6114604703304427 2.6501072072156706 8.7623790162780129 173 112 65 0.394905743000735 6 941 5 1011 3 1454 29 941
27619 0.83027769848521893 2.7344495419188979 8.6387300659466941 132 94 55 0.32623460667708309 10 1278 5 1030 3 961 1 1001 2 1089 42 648 39 1095 21 698 8 611 4 575
27620 0.80740769830288373 3.0046868163448996 8.2863868927984239 182 119 68 0.30197027933548487 6 973 3 966 2 1095
27621 1.3031993316793422 4.2580330160917068 6.7635328099708554 154 116 97 0.68911199351702268 6 976 5 1038 1 996 29 965 2 713
27622 0.16156975756728281 1.8898646842515636 9.6473837443315453 152 110 94 0.32365418406306495 6 974 5 1046 3 982 29 996 1 1021 2 1121 42 1044
27623 0.47932428679020322 2.433208794310203 9.9976813394516082 195 150 119 0.96266655472191753 6 975 3 658
27624 0.0072506445491688325 2.3500711714298577 8.9108172370735197 198 152 119 1.4263012944731703 9 796 5 1069 3 687 1 808 42 625
27625 0.25888950748529344 4.1350874048665123 6.6074159210677639 183 128 89 0.27078840991209768 3 1021 1 813
27626 0.041120231536109837 3.7620369466209662 7.2381532393002308 178 123 84 0.39561482656181046 7 937 5 1110 3 1585 29 1572 1 1358
27627 2.9643841506271333 4.0130908526625468 7.4481861510179757 186 141 122 0.70104252646858611 14 1685 5 1114
27628 -0.46075764230780858 2.8110490924577296 8.4686138105388924 187 139 103 0.72105716130905839 6 1037 5 1123 3 1058 1 850
27629 -0.14755066491780119 3.4941474984285326 7.5468913472728429 150 93 59 0.62469318856303013 6 799 5 1124 3 1043 29 1051 1 1056 2 1147
27631 0.045321369286054701 4.0445552117259087 6.8736452333697295 180 135 102 0.31572326226903075 6 1482 5 1137 3 1567 29 1561 1 1052 2 1140
27632 -0.28993183961908431 3.5933810569704976 7.4701009670404099 136 84 51 0.23335683630867213 6 814 5 1150 3 1116
27633 0.0072624381617216651 4.2632405316872841 6.5945718863596019 94 57 36 0.57651846052019518 6 846 5 1153 3 1065 29 1063 1 1057
27634 -0.72883939693245237 3.0467437099151788 8.1336805901883089 155 107 71 0.73120221735952429 6 1173 5 1170 3 1096
27635 0.37413483761672472 2.1781412751499287 9.2755371685730612 186 140 117 0.41676912402140803 5 1191 3 1118 29 991 1 1019
27636 10.136273680674773 -0.58951210066448367 5.6664435780823244 0 0 0 0.76531667983027973 6 3247 9 2512
27637 5.2156176035020376 -0.26784172631338116 6.9793229413056306 180 204 216 0.52315011426039948 6 860 5 1206 3 1136
27638 4.1226926748555481 -1.0052494209295459 7.3152308086078639 189 190 185 0.72825067268611099 6 1194 5 1211 3 848 29 491
27639 3.5206653458214121 -1.0812262863621782 7.4573062604810536 210 216 214 1.639744951705816 7 499 5 1217 3 1151 29 1163
27640 3.7330975777740334 0.3665204101293118 5.5175776749459056 174 175 170 0.42068338295676949 6 1109 5 1219 3 1152 29 833
32864 -0.57933670440320872 2.3349654110946831 8.8502364959410329 125 68 18 1.2816127256193857 39 5458 21 6168 8 8950 4 8409
27641 3.2785324361387103 -0.99891505906784694 7.2567420913407341 128 128 126 1.7281560451758882 5 1220 29 496
27643 3.6857002701684585 0.42208320324349552 6.0792228054128428 115 102 101 2.4754064675591918 6 879 5 1225 1 769 2 1684
27644 3.2673537159156609 0.41229979751871398 5.6997098267525317 144 127 119 0.72039187280429262 5 1233 3 1165
27645 3.1503567611571786 0.27307708414997139 6.0406124361115205 114 96 84 1.7979502524232196 5 1242 39 943
27646 2.6391487632662907 -0.53937867589443 6.8406200397088073 203 198 192 0.19484418650201429 6 1088 5 1245 3 1188
27648 4.0196097584359975 1.0756158191307739 5.9911704307570206 198 188 179 2.8092580759801482 6 1131 5 1253
33182 0.48066111846116999 3.1748574550556912 8.088385718221268 173 101 51 0.2682233360657027 39 1231 8 1806 4 1054
27649 2.8874501522108398 -0.0031423604602217265 6.506489699465301 167 154 141 1.5446799838735263 7 1281 10 975 5 1258 2 827 39 961
27650 7.8447251677532481 3.851389772386598 7.7040302092757091 141 143 136 0.97772120208801427 9 1052 5 1272 3 1198 29 1197 1 897 2 956 42 759
27652 2.744843776709645 0.49847333704053942 6.4785452756139161 105 77 52 0.3274648368629528 6 1031 5 1278 3 1204 29 1208
27653 7.606289975469589 4.0567453249902261 7.7952904621516463 169 120 73 0.5494920775153832 6 659 5 1279 3 1109 1 709 2 817 42 746
27654 7.1471856661510902 3.9732607015608519 7.2809688678959459 65 79 78 0.68087150942413244 6 1115 5 1281 3 1110 29 794 1 736 2 818 42 750 39 811 21 633
27656 3.2199540031747387 1.8407600641660602 6.9763754573121259 89 60 39 1.3562601659394922 12 908 5 1301 3 1228 29 1226 1 1418 2 988 20 4873
27657 2.772220133100352 -1.0566817549176626 5.5455062851850752 148 158 157 2.1616775868451699 6 1542 5 1316 3 1126 6 2729 42 799
27658 4.6397055881972751 -0.12355332737647604 5.8305048604417919 0 0 0 3.1765788564652828 9 1924 14 1946
27659 0.51638165795902458 1.8622459503617885 9.6461725897048289 146 109 91 0.46928725220686779 7 1429 5 1324 3 1682 29 1664
27660 2.8665479056627059 -0.94485684774409495 5.7222081640587232 184 184 187 2.2159908736852105 7 1531 5 1326
27661 3.4827093806042519 0.27521444525305055 5.5551377893446405 220 225 235 1.8937899529466866 9 497 5 1344
27662 3.0938456827442966 -0.89257128823498444 7.3246004311409783 161 163 161 0.47284733072288015 6 1225 5 1351 3 1314 29 1705 1 1495 2 1678
27663 3.1119469679881573 -0.79234150704244044 7.2386082225263495 190 184 168 2.3026948241774012 9 1836 5 1352 3 1315
27665 2.9092771170373073 -0.78682171367011178 7.1839703339726197 173 172 170 0.63605264606863687 6 1235 5 1367 3 1324 29 1323 1 2271
27666 3.810059245179263 0.44058118737022622 6.3709355673644623 123 108 103 1.2508200005976553 6 1249 5 1376 3 1325 29 1316 1 1492 2 2423
27667 2.8875089771617071 -0.26691361379141476 6.6200009739971257 127 117 105 2.5194362016995182 10 2221 5 1385 3 1185
27668 3.0312150617412308 -0.37086035126409989 7.0214030482878149 150 124 117 2.0932844099272394 7 1713 5 1386
27670 2.6731553935092012 0.081513077721241028 6.3804363275670992 120 103 93 0.17178552124464588 6 1270 5 1403 3 1355
27671 6.6812502229420607 4.0893592169707942 7.0695103159577677 90 92 86 0.65084515474002669 6 1288 5 1424 3 1209 29 1212 1 912 2 970 42 915 21 623
27672 2.9315892970365778 1.4150524415342687 6.9523153837198004 60 29 11 0.24464289386496035 9 1421 5 1440
27673 3.1027410454123503 4.3842019105197165 6.7615440691626221 189 143 127 1.7094105700035522 7 1459 5 1471 3 1414 29 1420
27674 1.932102433847392 2.0909108509627252 9.5974085419291804 161 128 118 1.3203771472623409 6 1322 5 1478 1 1380 39 1552 21 2169 4 1951
27675 1.4214461018214926 1.1241001702268854 10.766003807125195 142 112 102 0.85367065415384857 6 1529 5 1484 3 1439 29 1454 1 1373 2 1517 42 1340 39 1991 21 2284 8 2809 4 2568
27677 1.3871551537379072 2.1781046679778511 9.3395855649304522 0 0 0 0.8501398565891195 9 1115 10 765 11 1031 7 1148
27678 0.82783756587933643 2.3890502636725994 9.0551868948055425 202 151 121 0.57459630986408627 7 1426 5 1522 29 1683 1 1312 42 1232 8 1915
27679 2.0143553968210561 4.4462103769000478 6.5036423094448583 168 125 108 0.68845325096318333 6 1369 5 1532 3 948 29 943 1 1374
27680 1.7340522326743104 4.1795374482434058 6.9245307300156149 128 86 68 0.48792181581411465 6 1384 5 1544 3 1253 29 1700 1 1579 2 1507 42 1348
29379 0.33764270834773036 3.4168405938243822 7.9609519944809479 172 116 71 0.26063286160942106 3 1946 29 1873
27681 0.92096205610349968 3.7738862260270198 7.3033906917942097 130 84 55 0.39731344483479142 6 1411 5 1549 3 979 29 979 2 1092 42 1013
27687 -0.47717017350871643 2.6980249653747892 8.4916961071232855 181 135 102 0.22171405575586767 6 1457 5 1619 3 1562
27690 0.091885793063120724 4.1789996400027993 6.5884701663023071 165 110 73 0.13385100469386835 7 959 5 1639 3 1568
30421 -0.30419944932951903 3.8311943427165946 6.9929980169867632 213 161 114 0.55108577685056859 29 5252 1 5133 2 5648 42 4576
27691 -0.54631352212502082 2.4548581661909323 8.8101129260587836 180 136 106 0.56660727044168235 6 1452 5 1671 3 1563 29 1071
27695 -0.48063048661049096 2.1636386745487672 9.1721019936819985 189 140 110 1.2335849718431147 7 1373 5 1700 1 1203 2 1165 42 1102 39 846
30418 0.097097188398866871 4.6119258962357135 6.9288738557121086 0 0 0 1.0423522910763474 5 7510 29 5097
27696 1.4267331300403312 2.9452582029978132 8.3905217007962474 131 78 18 0.43589477099143425 5 1720 3 950 6 954 21 1717
27697 0.42533477081062909 3.9349826900099378 6.9960076889820453 187 134 102 0.62090618610681447 7 1360 5 1721 3 1923
27707 1.168519719611663 4.1061091679445756 6.7868527283902624 164 120 101 0.51797196595102246 6 978 5 1784 3 967 1 999 10 1098
33172 1.6777438253816834 2.4142236711243275 9.3131278575714553 177 114 69 0.44977824985873033 39 1539 8 1698 4 863
30425 -0.73074939825360663 1.7602554491304541 9.8418577452886034 161 127 102 0.8291043931399088 29 5010 1 5167 2 5738
27711 1.0981011815861523 3.5092965232167792 7.6317099651120692 167 103 59 0.64913852503524794 7 1411 42 1371 39 1340
27712 0.28808808374145289 1.5391610426555713 9.9814235193125622 152 115 95 1.3271295177441369 7 1427 5 1810 1 2997 5 2763 42 2231
27713 0.36602444580626287 1.6724361267083354 9.9478907007315485 118 88 68 0.43603495815836951 6 1382 5 1811 3 1677 29 1649 1 1359 2 1246 42 1035 39 1127 21 868 8 1003
27715 4.3021868436951394 -0.8822477887793293 7.3099158600691903 151 156 160 2.0139795440947452 7 2494 5 1815 29 1277 2 1719 6 3361
27717 -0.10460999993259089 3.5397770747803712 7.3851815961349416 182 132 95 1.3129488569520669 6 1464 5 1832 3 1573 29 1045 42 615 2 647
27718 -0.49732143312464916 2.68705384296022 8.5517745183195615 180 132 102 0.6989842384223155 6 1458 5 1833 3 1560 29 1535 1 1238 2 1410 42 1112 39 852 21 942 8 1081 4 780
27720 3.6959038529588684 -0.9149982822925834 7.6499660683040096 198 203 200 1.9264478084897747 5 1854 29 2231 42 1538 39 1222
27721 4.0462272239304893 0.611979097045244 5.4379200198134878 165 180 189 1.7950371382741361 6 1210 5 1862 29 2259
27724 3.8914508141246662 -1.0802470980884653 7.3265957071803447 159 163 162 0.44111724162016697 6 2664 5 1891 3 2349 29 2283 1 2201 2 2355
27725 4.49836200073337 0.28203911098766637 5.64848242031242 197 206 204 1.134945059774231 6 1586 5 1900 3 1275
27726 2.8455553791839909 -1.0749436940475583 5.9331573900096615 202 199 194 1.4706815172331407 9 1923 5 1910 42 792
27727 5.1656885433886517 -0.40202205755305953 6.7455357063456223 178 190 190 0.66235089084395249 6 2087 5 1929 3 2366 29 2309
27728 2.7560574271427574 -1.1841948462343326 5.7209828708011976 34 64 54 1.2650816793954025 5 1931 3 2370
27729 5.8556998147065533 -0.38395684848241485 7.150968247531738 209 226 239 0.16211188894054013 6 1541 5 1932
27730 3.0970683849090932 -1.0541056978424852 5.7137973933093109 147 166 180 1.2317557837120705 6 1050 5 1933
27731 -0.79014891635256346 2.919192624533292 8.2718985899365798 189 148 118 0.15282355175714643 6 2120 5 1968 3 2418
27732 -1.1261353090225592 2.0710430678756424 9.1428794425878124 201 156 123 0.12371542955669078 6 2547 5 1983
27733 -1.1266545337749272 2.0273782967547898 8.1591500132769674 173 133 107 1.5929919094680489 6 2563 3 2431
27734 0.031818069132407346 4.5040959525015998 6.6542291267226314 74 38 13 2.2847458829438092 6 2113 5 1993 3 1758 1 1217
27735 -0.2057733790828461 3.88891761635516 7.0214073390350009 201 144 97 0.2296970525134282 6 2128 5 2006 29 2432 1 3470
27736 -0.78378803112572759 2.6245520671308959 8.5583976430722135 147 102 79 0.10957004734131341 6 2100 5 2010 29 2363
27737 -0.95741960250701696 2.1976313435699764 9.1513575796861666 146 108 84 0.72512424253695729 6 1476 5 2021 3 1950 29 2344
27738 -0.96170189763417568 2.1505726848657845 9.7092284766138821 182 136 112 0.77878585244724063 6 1598 3 2438
27739 -0.66348047369644902 2.8297147200564368 8.2551583310493939 198 146 107 1.4684880873534478 6 2151 5 2024 3 2388 29 2386 1 2099
27740 0.16969417551502275 4.6427248524564835 6.5706270504740214 106 71 41 0.95488907039809134 6 2123 29 2666
27741 -0.65258501413659653 2.7145682258872914 8.3616814373366299 120 79 58 2.8805039897173721 14 1609 5 2052 3 2912
27742 -0.54813935071227426 2.4934208836252658 8.5152408882862431 171 126 105 2.0260055206924346 6 1636 5 2118 2 2207
27743 -0.55206817957105014 2.3826086645693678 8.9199247651281883 178 137 107 0.12776725825310975 6 1650 5 2134 3 1828
27744 0.014260716032296795 3.4535532758348233 7.5565144207464474 166 118 80 0.96635438075781943 14 1573 5 2162 2 2083 42 4291 39 2624 21 3124
27745 0.20740489173318929 3.5813455012110165 7.6089247279976693 135 86 51 0.19488183970461614 6 2345 5 2193 3 2556
27746 -0.20685755124284425 2.4849796044254671 8.9029613148602742 205 160 127 0.42622418588821737 7 2003 5 2217 3 1888
27747 -0.2978783730541032 2.2414073679597841 9.141572595740433 162 124 103 0.23075232119717257 6 1692 5 2228 3 1889 1 1969 2 2139 8 1682 4 1628
27748 0.2616412947207204 3.3702028871078982 7.790145866855072 116 71 32 0.21952245536033599 6 4415 5 2246 3 2458 29 3678
27749 0.29793545461959392 3.1236508415325952 7.9913221304399107 153 99 56 0.031805302180374077 6 1706 5 2278 3 1969
27750 0.73794997791829331 3.8841904040606212 7.3254998874099773 157 111 85 0.80457018110028977 7 2083 5 2293 3 1988 29 1929 1 1809
27751 0.86742055495388171 4.0615480817794953 7.0517247188622205 169 119 94 0.54717524317570188 6 1715 5 2308 3 1998
27752 0.21630357922913324 2.4763682118053341 9.495860084150598 170 129 101 2.4487109280792922 6 1734 1 1878 5 2313
27753 0.90333365073135174 3.8143132017678631 7.3999067587647929 153 106 78 0.7222459152529086 6 1730 5 2330 29 1966
33731 3.3621931995652337 0.014806138727634513 6.9916395647746432 106 81 64 0.63942099969043953 21 4926 8 7088 4 5597
27754 0.72093903975042861 2.5811877282776208 8.8799287084402643 170 119 90 1.1765815342952228 6 1768 5 2383 29 1725 1 1779
27755 0.82610401405993961 2.6763121485594894 8.7134409163265811 153 104 71 0.92828650613205754 6 1770 5 2391 1 1318 42 2165 29 5956 39 2074 21 2420 8 4415 4 2692
27756 0.13106937083920803 1.6409582859744882 7.9393493623145419 176 126 101 3.7146959211684365 9 2030 5 2412
27757 1.2712679049019722 3.0774563000706845 9.3766954113027339 132 91 69 0.95871539388780191 6 1616 3 2070
27758 0.47538035543944812 1.6372126049195477 9.9447918096441601 180 140 123 1.5360811089146398 12 2254 5 2420 2 1896 42 2204 39 2155
27759 1.0361112909613923 2.7329086778796299 8.825250553173916 136 89 55 0.31667399351973996 6 3151 5 2435 3 2082
27760 1.0466919208835213 2.7724327636768287 8.6075334165899733 134 82 45 0.39584352806162926 6 1378 9 1617 5 2440 3 1694 1 1303 2 1471 39 1307 21 2354
27762 1.1818599281240609 1.9575050758555983 9.6264768094947382 172 133 116 1.0315834813653399 12 1729 13 1732 3 2114 2 1786 8 1975 4 883
27763 1.5824821717192643 2.6078821632183358 8.8797926966689342 142 91 53 0.91875338736544199 5 2497 3 3472 29 2039 2 1741 39 1967 4 1927
27764 1.1701407824097276 1.3298156135163206 10.47421996679001 150 118 105 0.4963688977159193 6 1845 5 2508 3 2121 39 2010 21 2342 8 2886 4 2645
27766 1.3997614221330656 1.7688528950134561 9.9489745342089044 164 128 112 0.49105975384698575 10 1764 5 2512 2 1505 42 1345
27767 2.0382328289645191 3.0746544663953044 8.2795117540087855 158 92 34 0.40350645454011774 6 1838 5 2519 3 2135
27768 2.1982834842784849 3.3002645601269816 8.265851477870175 164 95 37 1.9569427645198847 6 1839 5 2523 3 2140 29 2069 1 1704 42 2099 39 1931
27769 2.1464465973642932 3.1805394650302805 8.1982716404868068 162 94 33 1.2444014529928304 6 1843 11 1367 29 2072 1 1697 42 2095 39 1928 21 2122
27770 1.7751592776227469 2.2322820964584755 9.3745119901314986 178 137 115 0.37396066320431026 6 1859 5 2534 9 1683
27771 2.192032352530576 3.2057502408148726 7.8544400482244177 125 69 5 2.0176037944031573 6 1851 5 2541 2 1550 29 1714
27772 2.7726334063337408 -0.58903547724975358 6.3092704020448114 166 163 158 1.931656480693368 12 1298 5 2546 3 3223
27773 2.7822141887560492 3.6080468675326172 8.0078526066853541 161 107 73 0.02638184095895215 6 1865 5 2559
27774 2.581214075786292 2.2711697967667375 9.9781442869742563 157 123 113 1.7039733813991169 7 1473 3 2153 1 1688
27775 2.3766126291658018 2.118124310558374 9.5739256239350965 159 126 116 1.5621146192582827 7 1612 29 1422 42 1424 39 1920 2 1565
27777 3.041589915090015 -0.37961594768437895 7.6026310172627287 160 145 126 1.642452718496064 5 2633 3 1352 1 742 2 820 39 452 21 311 8 232 4 262
27778 2.7704168757085541 -0.60408004136571802 7.2051829747231633 166 161 149 0.74506097526649562 6 1948 5 2647 3 1730
27779 3.5292912816196242 0.1402338534653372 6.8752118818331871 138 115 97 0.49447940720847838 6 2676 5 2654
27780 3.3499406050165361 -0.16420362810696615 7.0585338254182162 168 158 146 1.8549429413696967 5 2664 3 2243 29 1341 1 2294 6 1083 2 4506 42 2429 39 4420
27781 3.6169490076560189 -0.15789926029030965 7.3131504242448981 127 113 100 0.46893962338186651 6 2936 5 2675 3 3290
27782 4.0121793823785739 0.58367421665768393 6.412764992592547 122 109 101 0.69238978878887958 6 2928 5 2690 3 2272 29 3009 1 2679 2 2768 42 2357
27784 3.8257139417406894 -0.39234576616907635 7.6830723483140302 129 110 95 1.1517762991060783 6 2888 5 2704 3 2276
27785 4.114292603982121 0.56655416323457153 6.4385537909034145 151 139 141 0.27084990969512224 6 1984 5 2706 3 2284
27786 3.9595462996538053 -0.17715163548321994 7.3273797953762712 115 97 88 1.3549383342835273 5 2715 3 1105 29 820 1 766 2 744 42 728 39 1775
27787 3.106882584942126 -0.54474903051585988 6.7955715465271451 159 150 145 1.6877080684066474 7 1751 5 2720 3 3234 1 3820 29 4074
27789 0.95911779319058665 2.6802019926257228 8.8699173878966722 169 115 91 0.16213532733772962 6 3158 5 2742 3 3534
27790 0.9771834718402761 2.7574468749231045 8.7802523636288949 160 109 80 2.0377373365405886 6 3162 5 2743 39 2059 21 1583 8 1939
27791 1.2386612213293478 3.3714969448735062 7.9799988983930783 137 82 18 0.96475080430103388 6 5081 5 2746 3 3524 29 3456 1 2950
27792 1.2665246346037569 3.425872777173752 8.0060251863554601 170 104 46 0.71641062220143992 9 2043 5 2752 3 3527
27794 1.5516346434644486 4.5504901144077801 6.7470893370774769 128 86 69 2.1669814181291627 6 3211 5 2781 3 3546 29 3464 1 2949 2 4865
27795 0.8189117353768437 3.0422287854130796 8.2325487869690157 153 93 39 0.47574611517762683 7 4301 5 2786 29 3510
33087 -0.50133924824164322 2.3445169495257154 8.8714665348338819 172 112 62 0.450099015768328 21 589 8 826 4 778
27796 0.018491459253008779 1.6355791174067078 9.7800329810234086 180 135 114 1.7889276686935958 6 3198 5 2833 3 3611
27797 0.72492252504370625 3.4913466519441343 7.6050556679745025 126 77 36 1.1149047397876775 6 2170 5 2865 3 6036 29 5930 1 2991 2 3157 42 2184 39 3674 21 4204
27800 0.43914149735862229 3.140857310566513 8.0373389933071202 146 88 42 0.54526580325862362 6 2194 5 2905 42 2227
27801 0.82740950735991103 4.1426496208372914 6.485297932965894 157 110 90 0.80966876047537939 14 4300 5 2922
27802 0.57961854296534887 3.623712450332953 7.4384369042231038 139 89 52 0.15912182930717489 6 2221 5 2956 1 1821
27803 0.36344194744357572 3.2556961669650248 7.5231153660258094 144 93 48 0.95035872531042487 6 4358 29 5886
27804 0.56097558121732227 3.6266335032027648 7.4427929197721516 169 115 81 0.9739700361926541 6 1705 5 2967 29 3604 1 1824 2 1253 42 1170 21 1637
27805 -0.10061066930731191 2.1449903665060788 9.3424847115873479 166 125 94 1.0761897538065122 6 4976 5 2971 3 3713 29 3705
33025 1.5183574927437791 2.0280843104681616 9.6213265572525355 161 111 78 1.3898208509210697 1 404 8 303 4 238
27806 0.76174023168572291 4.0497318509271976 7.1848544814963926 173 126 100 1.5245900181024616 6 1698 5 2979 3 3651
27807 0.68364612369000621 3.9383704707901135 7.1364427558066366 173 126 98 0.67209142821956858 6 2242 5 2983 3 3660
27808 -0.15650845486998075 2.1350302630064109 9.3880462778777325 166 126 100 1.6702300660554501 14 2084 5 2993 2 2754 42 4501
27809 0.44628984611293393 3.5221223504113435 7.5647395632678025 128 79 39 0.21122072140870304 6 2243 5 3002 3 3682 2 3227
27810 -0.25023625525799886 1.9905529651804188 9.4395658689626991 160 121 93 0.43263945552924427 6 2204 5 3010 3 2471 29 3751
27811 0.30124508361747043 3.135103935513583 8.6572297442827111 188 132 97 1.0001280113449649 6 2223 5 3020 3 1952
27812 -0.22567121807464827 2.15695096213613 9.2092171571176493 189 145 115 0.22484137235745741 6 2219 5 3037 3 2486 29 3765
27813 -0.26645335534793374 1.9823462945313879 9.8863790962094491 150 113 87 0.61304584909344717 6 2210 3 5873
27814 -0.50271856546233074 1.6754864186577296 9.5294322568294696 159 119 94 0.68700495084671687 6 1707 5 3064 3 2545 29 2457
27815 0.21810080264146881 3.3023519160405597 7.8446111084849619 128 79 39 0.34168493496514607 6 2282 5 3084 3 2473 29 3697 1 3143 2 5009 42 2741
27816 -0.14277170933960909 2.5936755105022504 8.581457002587431 151 103 75 0.3378788532837107 7 3577 5 3103 3 2526
27818 3.4976623869651915 0.63235000606795277 5.7008596510401679 188 184 175 2.1985849167383305 7 2646 5 3175 3 3974 6 2935 29 4109
